# .PCD v0.7 - Point Cloud Data file format
VERSION 0.7
FIELDS x y z intensity
SIZE 4 4 4 4
TYPE F F F F
COUNT 1 1 1 1
WIDTH 1464
HEIGHT 1
VIEWPOINT 0 0 0 1 0 0 0
POINTS 1464
DATA ascii
23.103344 -14.897898 5.4791088 0
23.110924 -14.86764 5.4881272 0
23.118603 -14.837605 5.4968562 0
23.126219 -14.807542 5.5054598 0
23.13372 -14.777648 5.5138831 0
23.1411 -14.74803 5.5221252 0
23.148472 -14.718089 5.5302954 0
23.155748 -14.68848 5.5383406 0
23.162889 -14.659205 5.5461979 0
23.170067 -14.629769 5.5540948 0
23.17709 -14.600662 5.5617614 0
23.184023 -14.571272 5.5691986 0
23.190914 -14.542145 5.5766115 0
23.197702 -14.513206 5.5838661 0
23.204456 -14.484137 5.5910273 0
23.211149 -14.455132 5.5980854 0
23.217724 -14.426739 5.605041 0
23.223953 -14.397935 5.6121669 0
23.22896 -14.368191 5.6202793 0
23.23381 -14.339112 5.6281228 0
23.23859 -14.30991 5.6358285 0
23.24333 -14.280589 5.6434469 0
23.248041 -14.251358 5.6510191 0
23.252659 -14.222747 5.6584392 0
23.257177 -14.193961 5.6656656 0
23.261663 -14.16512 5.6728244 0
23.266069 -14.136518 5.6798434 0
23.270439 -14.107949 5.6867919 0
23.274727 -14.07949 5.6935925 0
23.278908 -14.050994 5.7001853 0
23.283083 -14.022951 5.7067881 0
23.287254 -13.994769 5.7133794 0
23.291292 -13.966454 5.7197075 0
23.29525 -13.938335 5.7258911 0
23.299143 -13.910425 5.7319632 0
23.30299 -13.882588 5.7379522 0
23.306816 -13.854753 5.743897 0
23.310741 -13.827059 5.7495108 0
23.31485 -13.7993 5.7548032 0
23.318871 -13.772167 5.759984 0
23.322865 -13.744925 5.7651019 0
23.326818 -13.717484 5.7701244 0
23.330704 -13.69025 5.7750306 0
23.334517 -13.662903 5.7797852 0
23.338253 -13.636101 5.7844477 0
23.342012 -13.608803 5.7891006 0
23.345686 -13.581733 5.7936115 0
23.349257 -13.554849 5.7979403 0
23.353956 -13.528409 5.8012705 0
23.359045 -13.502328 5.8041663 0
23.364134 -13.475735 5.8069282 0
23.369089 -13.449637 5.8095627 0
23.374031 -13.423373 5.8121257 0
23.378952 -13.396919 5.8145981 0
23.383764 -13.370982 5.8169994 0
23.388559 -13.344864 5.8193207 0
23.393284 -13.318554 5.821455 0
23.397964 -13.292411 5.8235483 0
23.402586 -13.266423 5.8255701 0
23.407187 -13.240358 5.827529 0
23.411728 -13.214137 5.8293304 0
23.416157 -13.18838 5.8310413 0
23.42062 -13.162291 5.8327289 0
23.425018 -13.136135 5.8342752 0
23.42934 -13.110142 5.8357182 0
23.433622 -13.084186 5.8370895 0
23.437881 -13.058124 5.8383932 0
23.442062 -13.032105 5.8395538 0
23.447454 -13.006604 5.8395758 0
23.452995 -12.980801 5.8395195 0
23.458471 -12.955118 5.8393812 0
23.463896 -12.929304 5.8390827 0
23.469227 -12.90362 5.8386517 0
23.474535 -12.877947 5.8381782 0
23.479801 -12.852266 5.8376174 0
23.484974 -12.826682 5.8369074 0
23.49188 -12.8008 5.8348274 0
23.499685 -12.775391 5.8319645 0
23.507387 -12.750159 5.829031 0
23.515163 -12.724327 5.8258104 0
23.522799 -12.698906 5.8226099 0
23.530418 -12.67356 5.8194323 0
23.538122 -12.647706 5.8160539 0
23.545723 -12.621908 5.8125143 0
23.553293 -12.596066 5.8088822 0
23.560871 -12.570185 5.8052397 0
23.568338 -12.544478 5.8015032 0
23.575869 -12.518361 5.797596 0
23.583344 -12.492193 5.7935467 0
23.590696 -12.466314 5.7894611 0
23.598127 -12.440135 5.7853146 0
23.605616 -12.413542 5.7809844 0
23.612965 -12.38724 5.7765894 0
23.620207 -12.36111 5.7721071 0
23.627491 -12.334672 5.7674856 0
23.634768 -12.308047 5.7627177 0
23.642027 -12.281346 5.757863 0
23.64926 -12.254694 5.7529883 0
23.658169 -12.228008 5.7465787 0
23.667843 -12.201237 5.7394748 0
23.677624 -12.174108 5.7322264 0
23.687277 -12.147112 5.7248445 0
23.696945 -12.12 5.7173738 0
23.676315 -12.092789 5.645391 0
23.685843 -12.065583 5.6375275 0
23.692429 -12.038443 5.6319194 0
23.69677 -12.01127 5.6280041 0
23.701153 -11.983641 5.6239486 0
23.705437 -11.956205 5.6197662 0
23.709694 -11.928704 5.615489 0
23.713911 -11.901138 5.6110816 0
23.718092 -11.873627 5.6066217 0
23.722261 -11.845779 5.6019602 0
23.726303 -11.818259 5.5971718 0
23.730423 -11.790396 5.5923939 0
23.734549 -11.762177 5.5874395 0
23.738548 -11.734275 5.5823584 0
23.74255 -11.706161 5.5771732 0
23.746513 -11.677966 5.5718622 0
23.750406 -11.649951 5.5664744 0
23.754314 -11.621697 5.5610027 0
23.758186 -11.59336 5.5553989 0
23.762012 -11.564793 5.5495787 0
23.765842 -11.535976 5.5436382 0
23.769588 -11.507488 5.5376673 0
23.7733 -11.478897 5.5315681 0
23.777084 -11.44976 5.5253563 0
23.78068 -11.421097 5.5189495 0
23.784285 -11.392183 5.5124369 0
23.787996 -11.36272 5.5058894 0
23.791525 -11.333725 5.4991589 0
23.795647 -11.304358 5.4917974 0
23.801039 -11.274602 5.4832287 0
23.806343 -11.244864 5.4744587 0
23.811766 -11.214677 5.4656477 0
23.8172 -11.184179 5.4566345 0
23.820404 -11.154403 5.4491777 0
23.81735 -11.12615 5.4469166 0
23.814201 -11.097435 5.4444895 0
23.810947 -11.06866 5.4417739 0
23.807707 -11.039853 5.4391007 0
23.804441 -11.01124 5.4363117 0
23.801079 -10.982424 5.4332924 0
23.797716 -10.953572 5.4302797 0
23.79431 -10.925079 5.4270668 0
23.790846 -10.896077 5.4237957 0
23.787371 -10.867016 5.4205084 0
23.783836 -10.838183 5.4170008 0
23.780231 -10.809246 5.4133124 0
23.776581 -10.780113 5.4095378 0
23.772902 -10.751184 5.4056339 0
23.769152 -10.721744 5.4016399 0
23.765373 -10.69252 5.397522 0
23.761591 -10.663774 5.3932772 0
23.757717 -10.634222 5.3889551 0
23.75379 -10.604431 5.3845367 0
23.749861 -10.575289 5.379961 0
23.745865 -10.546036 5.3752193 0
23.741802 -10.51626 5.3704119 0
23.737715 -10.486851 5.3654408 0
23.733555 -10.457174 5.3603272 0
23.729353 -10.427524 5.3550863 0
23.725124 -10.397768 5.3497887 0
23.720825 -10.367897 5.3443213 0
23.71645 -10.337669 5.3387117 0
23.712072 -10.307623 5.3330555 0
23.707645 -10.278018 5.3271503 0
23.703114 -10.247686 5.3211174 0
23.698532 -10.217256 5.3149629 0
23.693933 -10.186868 5.3087502 0
23.690092 -10.156165 5.3017721 0
23.68622 -10.125535 5.2944098 0
23.682339 -10.094617 5.2870293 0
23.678349 -10.063159 5.2794394 0
23.674305 -10.031952 5.2717538 0
23.675598 -9.9984894 5.259275 0
23.675638 -9.9649448 5.2474699 0
23.671268 -9.9331894 5.2396297 0
23.666664 -9.9019079 5.2316341 0
23.661978 -9.8703566 5.2235317 0
23.657225 -9.8383255 5.2153106 0
23.652304 -9.806921 5.207015 0
23.647371 -9.7751827 5.1986666 0
23.642248 -9.7427902 5.1900678 0
23.636984 -9.710762 5.1813846 0
23.631592 -9.6788797 5.1726036 0
23.626171 -9.6468172 5.1637764 0
23.620743 -9.614151 5.1548667 0
23.615061 -9.5816898 5.1457534 0
23.609207 -9.54949 5.1365156 0
23.603394 -9.516861 5.127265 0
23.597414 -9.4837322 5.1178002 0
23.591251 -9.451128 5.1082339 0
23.585064 -9.4183569 5.0986261 0
23.578714 -9.3849688 5.0887971 0
23.572289 -9.3522367 5.0789776 0
23.565725 -9.3187847 5.0689478 0
23.558952 -9.2853889 5.058733 0
23.55212 -9.2521572 5.0484867 0
23.545233 -9.2183952 5.038125 0
23.538235 -9.1846685 5.027668 0
23.531038 -9.1510992 5.0170488 0
23.523687 -9.1173239 5.0062656 0
23.51623 -9.083066 4.9953289 0
23.50864 -9.0489101 4.9842844 0
23.500996 -9.0148296 4.9731989 0
23.493217 -8.9807072 4.9619875 0
23.485188 -8.9461174 4.9504933 0
23.477203 -8.9112282 4.939003 0
23.468996 -8.876564 4.9273367 0
23.460567 -8.8417702 4.9154558 0
23.452126 -8.8068695 4.9035492 0
23.443493 -8.7715302 4.8914165 0
23.434757 -8.7365112 4.8792305 0
23.42585 -8.7016058 4.8669043 0
23.416815 -8.6657362 4.8543434 0
23.443771 -8.5994501 4.8039484 0
23.488207 -8.5177164 4.7346115 0
23.533638 -8.433629 4.663085 0
23.580311 -8.3468952 4.58918 0
23.62911 -8.256505 4.5122681 0
23.665245 -8.1761961 4.4479294 0
23.58136 -8.2035875 4.5122209 0
23.499922 -8.2293406 4.5744858 0
23.419502 -8.2559843 4.6361895 0
23.34008 -8.2829514 4.6972461 0
23.301888 -8.271759 4.71348 0
23.293068 -8.2328434 4.6969957 0
23.284077 -8.193409 4.6801977 0
23.274979 -8.1538391 4.6632147 0
23.265764 -8.1141882 4.6460266 0
23.256474 -8.0742579 4.6287003 0
23.24699 -8.0341225 4.6110373 0
23.237341 -7.9936113 4.5930743 0
23.227602 -7.9526234 4.5749435 0
23.217676 -7.9115338 4.5564847 0
23.207623 -7.8703632 4.5378065 0
23.197529 -7.8290911 4.5190544 0
23.18721 -7.7869349 4.4998879 0
23.176689 -7.7446976 4.4803705 0
23.166107 -7.7029171 4.4607658 0
23.155338 -7.6601954 4.4408083 0
23.144354 -7.6168451 4.4204559 0
23.133274 -7.5735092 4.3999424 0
23.122044 -7.5300269 4.3791666 0
23.110643 -7.4861073 4.3580837 0
23.099125 -7.4422207 4.3367977 0
23.087416 -7.397738 4.3151684 0
23.063913 -7.3672895 4.3079233 0
23.031496 -7.348238 4.3120089 0
22.9988 -7.3289013 4.3162503 0
22.966272 -7.309948 4.3201914 0
22.933996 -7.2913747 4.3238764 0
22.901501 -7.2726512 4.32761 0
22.868931 -7.2539158 4.3313227 0
22.836445 -7.235436 4.3348236 0
22.803896 -7.2169876 4.3382659 0
22.771343 -7.1986637 4.3415856 0
22.738712 -7.1804857 4.3447299 0
22.706131 -7.1624584 4.3477468 0
22.673639 -7.1444941 4.3507462 0
22.640985 -7.1265483 4.3536539 0
22.608444 -7.1087122 4.3565068 0
22.575727 -7.0909672 4.3591905 0
22.543085 -7.0736256 4.361516 0
22.510471 -7.05616 4.3639746 0
22.477665 -7.0386271 4.3664131 0
22.444914 -7.0213923 4.3685875 0
22.412212 -7.0042467 4.370698 0
22.379522 -6.9871359 4.3727779 0
22.346674 -6.9700718 4.3747435 0
22.313873 -6.953229 4.3765154 0
22.281013 -6.9364748 4.3781738 0
22.248775 -6.9187164 4.3788471 0
22.21748 -6.8993387 4.3778811 0
22.186291 -6.8798389 4.3764772 0
22.154934 -6.8600912 4.3750005 0
22.123537 -6.8404927 4.3733525 0
22.092203 -6.8215704 4.3715391 0
22.059788 -6.8039174 4.3711228 0
22.02737 -6.7861419 4.3708596 0
21.99493 -6.7686248 4.3702564 0
21.962336 -6.7511797 4.3694544 0
21.929798 -6.7336941 4.368742 0
21.89744 -6.7165661 4.3677073 0
21.864763 -6.699296 4.3666286 0
21.831919 -6.6819043 4.3655872 0
21.799305 -6.6648417 4.3642941 0
21.766453 -6.6477866 4.3628244 0
21.733564 -6.6306534 4.3614278 0
21.700638 -6.6137381 4.3597307 0
21.66774 -6.5968962 4.3579631 0
21.63483 -6.5801277 4.3560963 0
21.601671 -6.5633435 4.3540735 0
21.568472 -6.5465832 4.3519945 0
21.535347 -6.5300179 4.3497214 0
21.502178 -6.5135283 4.3473229 0
21.468836 -6.4969788 4.3448792 0
21.435417 -6.4804072 4.3424139 0
21.403233 -6.46029 4.3364334 0
21.371174 -6.4400201 4.330266 0
21.339071 -6.4198227 4.3239846 0
21.306757 -6.3996077 4.3175387 0
21.2743 -6.3795958 4.3111458 0
21.241688 -6.3597722 4.3044715 0
21.208925 -6.3397398 4.2978959 0
21.17617 -6.3197918 4.2912354 0
21.1432 -6.299933 4.2842956 0
21.109976 -6.2799673 4.2772532 0
21.076761 -6.2601662 4.2700405 0
21.043579 -6.2405787 4.2626286 0
21.010145 -6.2208166 4.255187 0
20.976484 -6.201036 4.2475729 0
20.942818 -6.1812768 4.2399282 0
20.90893 -6.1614714 4.2321458 0
20.874865 -6.1419077 4.2239518 0
20.840719 -6.1221433 4.2159042 0
20.813753 -6.0747051 4.184536 0
20.79143 -6.006784 4.1360912 0
20.768505 -5.9369121 4.0863323 0
20.745144 -5.8661423 4.0356631 0
20.721306 -5.7943606 3.9839973 0
20.696941 -5.721386 3.9312255 0
20.672037 -5.6462193 3.8772318 0
20.641052 -5.5963221 3.8433571 0
20.608488 -5.551631 3.8133821 0
20.57724 -5.4974566 3.7761507 0
20.546455 -5.4393058 3.7348726 0
20.514467 -5.3823276 3.6948204 0
20.48078 -5.3314085 3.6596923 0
20.446777 -5.2805586 3.6241174 0
20.412251 -5.2285137 3.5880823 0
20.377253 -5.1762919 3.5514379 0
20.341784 -5.1239595 3.5141702 0
20.304949 -5.0754519 3.4800458 0
20.26613 -5.0382843 3.4552269 0
20.226847 -5.0008216 3.430027 0
20.187189 -4.9633708 3.4043889 0
20.147446 -4.9258919 3.378665 0
20.106991 -4.8880062 3.3523407 0
20.06616 -4.8498168 3.3257432 0
20.025028 -4.8115544 3.2988343 0
19.983692 -4.7732449 3.271719 0
19.941738 -4.734632 3.2440476 0
19.899179 -4.6956291 3.2158895 0
19.856937 -4.6516552 3.183856 0
19.81506 -4.5946188 3.1409092 0
19.771063 -4.560554 3.1159663 0
19.726568 -4.5259762 3.0908151 0
19.681686 -4.4913192 3.0653152 0
19.636526 -4.4569139 3.0393958 0
19.590902 -4.4219074 3.0133519 0
19.544733 -4.3869252 2.9867458 0
19.498156 -4.3548803 2.9623079 0
19.451269 -4.3327117 2.9455891 0
19.403824 -4.3104858 2.9285774 0
19.356121 -4.2879419 2.9115629 0
19.308155 -4.2660131 2.8941188 0
19.26 -4.244184 2.8765225 0
19.211576 -4.22194 2.8589587 0
19.162798 -4.2000051 2.8410544 0
19.113821 -4.1826253 2.8262577 0
19.064644 -4.1663094 2.8123693 0
19.015566 -4.1502929 2.7983494 0
18.965958 -4.1339078 2.7842941 0
18.916033 -4.1178279 2.7699046 0
18.866051 -4.1022968 2.7551579 0
18.815924 -4.0862579 2.7406468 0
18.765451 -4.0707121 2.7256722 0
18.714775 -4.055088 2.710649 0
18.663929 -4.0394821 2.6955309 0
18.612925 -4.0243397 2.6800599 0
18.561808 -4.0093298 2.6644549 0
18.509876 -3.9938145 2.6487617 0
18.457964 -3.9786205 2.632884 0
18.406162 -3.9640222 2.616703 0
18.352156 -3.9334893 2.5877991 0
18.297356 -3.900022 2.5565438 0
18.242062 -3.8674426 2.5252886 0
18.186607 -3.835958 2.4942236 0
18.130547 -3.8034587 2.4626608 0
18.076107 -3.7863545 2.4433184 0
18.022364 -3.7755213 2.4286156 0
17.968189 -3.765192 2.4137092 0
17.913946 -3.7547884 2.3987937 0
17.859625 -3.7444863 2.3838401 0
17.805082 -3.7351003 2.3686886 0
17.750391 -3.7253847 2.3535395 0
17.696793 -3.7232895 2.3444443 0
17.644253 -3.7288952 2.3407078 0
17.591932 -3.7342787 2.3370113 0
17.539787 -3.7396388 2.3333282 0
17.487394 -3.7455797 2.3295565 0
17.434803 -3.7523165 2.3256688 0
17.382402 -3.7593899 2.3217487 0
17.330097 -3.7659154 2.3179049 0
17.277735 -3.7729511 2.3139935 0
17.225334 -3.7809591 2.3099518 0
17.17296 -3.788271 2.3060021 0
17.120663 -3.7961893 2.3019781 0
17.068371 -3.8050313 2.2978344 0
17.016079 -3.8134336 2.2937484 0
16.963644 -3.8222837 2.2895951 0
16.911324 -3.8316412 2.2853823 0
16.859217 -3.8410339 2.2811785 0
16.807051 -3.8514266 2.2773342 0
16.755175 -3.8630981 2.2741184 0
16.706079 -3.8829403 2.2779818 0
16.658922 -3.9088917 2.2868433 0
16.6117 -3.9356689 2.295599 0
16.56501 -3.9626818 2.3041744 0
16.518009 -3.9874158 2.3110795 0
16.470737 -4.0123911 2.3177533 0
16.423702 -4.0372143 2.3244033 0
16.376926 -4.0622725 2.3309131 0
16.33029 -4.0876741 2.3372898 0
16.283899 -4.1133146 2.3435311 0
16.237583 -4.1389112 2.3497643 0
16.191219 -4.1644778 2.3560171 0
16.145212 -4.1909447 2.3619227 0
16.099405 -4.2172875 2.3678055 0
16.047611 -4.2279196 2.3605037 0
15.992367 -4.2310038 2.3459702 0
15.936944 -4.2343907 2.3312993 0
15.88243 -4.2406578 2.3189778 0
15.830009 -4.2519236 2.3105712 0
15.777519 -4.2633753 2.3020754 0
15.724825 -4.2750177 2.2934813 0
15.672218 -4.286798 2.2848287 0
15.619577 -4.2989869 2.2759871 0
15.566889 -4.3113732 2.267055 0
15.514001 -4.3243694 2.2578321 0
15.461365 -4.3372974 2.2486539 0
15.40867 -4.3500848 2.2395391 0
15.355839 -4.3636031 2.2300801 0
15.302613 -4.3770099 2.2206488 0
15.249779 -4.3908262 2.2110553 0
15.187891 -4.3876276 2.1854882 0
15.120306 -4.3755975 2.1517315 0
15.052688 -4.3633924 2.1180348 0
14.984683 -4.3518124 2.0838275 0
14.918577 -4.3452935 2.0531697 0
14.853933 -4.3422375 2.025805 0
14.78929 -4.3395562 1.9982214 0
14.723969 -4.3373256 1.970067 0
14.658263 -4.3345757 1.9420438 0
14.592429 -4.3323317 1.9136662 0
14.525883 -4.3304939 1.8847303 0
14.474503 -4.3532677 1.8788552 0
14.442971 -4.4086442 1.9029613 0
14.411662 -4.46349 1.9269152 0
14.380657 -4.5186939 1.9505138 0
14.349908 -4.5732226 1.9739485 0
14.319636 -4.627131 1.9969859 0
14.28964 -4.6811347 2.0197306 0
14.2598 -4.7347665 2.0423722 0
14.230425 -4.788866 2.0644779 0
14.199502 -4.8401041 2.0838513 0
14.165672 -4.8867726 2.0993147 0
14.132415 -4.9337091 2.114696 0
14.081511 -4.9555125 2.1051216 0
13.988425 -4.9203105 2.0383716 0
13.895151 -4.8862038 1.972096 0
13.799976 -4.8521209 1.9044394 0
13.703598 -4.8175545 1.8359308 0
13.659671 -4.8517919 1.8366723 0
13.617956 -4.8901019 1.8402548 0
13.57625 -4.9286375 1.8438082 0
13.534963 -4.96696 1.8473053 0
13.493874 -5.005775 1.8507075 0
13.453034 -5.0443096 1.8540945 0
13.412554 -5.0828032 1.8574152 0
13.372112 -5.1221571 1.8606281 0
13.331779 -5.1615295 1.8638186 0
13.291607 -5.2008839 1.8669782 0
13.251883 -5.2408409 1.8699822 0
13.212441 -5.2805395 1.8729591 0
13.172862 -5.3203926 1.8759475 0
13.133518 -5.3607011 1.8788352 0
13.094681 -5.4012995 1.8815923 0
13.055746 -5.4416127 1.8843994 0
13.017224 -5.481442 1.8871837 0
12.978977 -5.5226865 1.8897514 0
12.928801 -5.5516829 1.8785825 0
12.872189 -5.5735784 1.8597693 0
12.815367 -5.5958481 1.8406096 0
12.75841 -5.6185055 1.8210912 0
12.701429 -5.6410761 1.8016543 0
12.643901 -5.6640973 1.7818122 0
12.586025 -5.6874642 1.7616534 0
12.527596 -5.7100835 1.7403646 0
12.485208 -5.7490048 1.7367072 0
12.443774 -5.7883625 1.7340989 0
12.402565 -5.8277121 1.7314215 0
12.361345 -5.8676872 1.7285008 0
12.320499 -5.9073954 1.7255683 0
12.279706 -5.9472203 1.7225742 0
12.238914 -5.9877644 1.7192936 0
12.183713 -6.0163336 1.7007642 0
12.128722 -6.0443568 1.6823692 0
12.07417 -6.0728412 1.6637444 0
12.018661 -6.1024709 1.6444359 0
11.96294 -6.1319671 1.6251903 0
11.90771 -6.1616654 1.6058593 0
11.852503 -6.1913996 1.5865111 0
11.796907 -6.2215657 1.5669022 0
11.74138 -6.2522817 1.5469961 0
11.685374 -6.2832198 1.5269403 0
11.629527 -6.314559 1.5066733 0
11.574153 -6.3461871 1.4862709 0
11.517942 -6.3784766 1.4654598 0
11.461905 -6.4104328 1.4448419 0
11.405935 -6.4426589 1.4240775 0
11.349626 -6.4760394 1.4026613 0
11.293141 -6.5094056 1.3812428 0
11.237814 -6.5435891 1.3608427 0
11.207448 -6.59483 1.3642373 0
11.186008 -6.6529026 1.3761187 0
11.167509 -6.712749 1.3902321 0
11.149091 -6.7717829 1.4042635 0
11.130611 -6.8316021 1.4183636 0
11.112693 -6.8910265 1.4320874 0
11.095188 -6.9495168 1.445508 0
11.077845 -7.0086145 1.458847 0
11.060917 -7.0677299 1.4719176 0
11.0438 -7.1267252 1.4851036 0
11.027115 -7.1854706 1.4980044 0
11.010813 -7.2441821 1.5106549 0
10.9943 -7.3027439 1.5234375 0
10.978377 -7.3611708 1.5358315 0
10.962875 -7.4199495 1.5479655 0
10.947181 -7.4780464 1.5602021 0
10.931896 -7.5361099 1.5721707 0
10.91717 -7.5943937 1.5837855 0
10.902311 -7.6529551 1.5954967 0
10.887673 -7.7110548 1.6070471 0
10.873333 -7.768714 1.6183906 0
10.859476 -7.8266926 1.6294317 0
10.84547 -7.8843312 1.6405573 0
10.831781 -7.9416962 1.6514668 0
10.818619 -7.9999886 1.6620708 0
10.80514 -8.0580969 1.6728697 0
10.792179 -8.1146564 1.6832819 0
10.779631 -8.1722336 1.6934605 0
10.767188 -8.2303925 1.7035918 0
10.754676 -8.2873745 1.713727 0
10.742437 -8.3442068 1.7236805 0
10.730898 -8.4013357 1.7331901 0
10.719195 -8.4586973 1.742815 0
10.707634 -8.5163488 1.7523575 0
10.733259 -8.5885839 1.7935443 0
10.690979 -8.6315002 1.7759466 0
10.656743 -8.6792631 1.764636 0
10.622691 -8.7276001 1.7532511 0
10.588789 -8.7753773 1.741972 0
10.555376 -8.8235569 1.7306762 0
10.522195 -8.8719645 1.7193675 0
10.489073 -8.9208288 1.7079887 0
10.455765 -8.9696732 1.6965947 0
10.423462 -9.0193987 1.6851568 0
10.391426 -9.068943 1.6737747 0
10.359017 -9.1184721 1.6623602 0
10.327475 -9.1690807 1.6508532 0
10.296232 -9.2196941 1.6393757 0
10.264921 -9.2702284 1.6279054 0
10.233593 -9.3212414 1.616354 0
10.202656 -9.3725166 1.6047974 0
10.172003 -9.4239178 1.5932512 0
10.141397 -9.4760571 1.5815873 0
10.111418 -9.5275698 1.5700889 0
10.081951 -9.5796146 1.5585551 0
10.05271 -9.6332493 1.546783 0
10.023289 -9.6860046 1.5351377 0
9.9945774 -9.7383957 1.5236225 0
9.9661121 -9.7921934 1.5119009 0
9.9376659 -9.8453074 1.5002947 0
9.9100409 -9.8990831 1.4886618 0
9.8871489 -9.9547377 1.4810052 0
9.8727045 -10.011737 1.4802399 0
9.8707905 -10.072355 1.4888439 0
9.8691425 -10.132101 1.4972906 0
9.8671942 -10.191406 1.5057216 0
9.8659477 -10.251233 1.5141182 0
9.8650646 -10.311547 1.5225291 0
9.8639088 -10.371202 1.5308895 0
9.863389 -10.42984 1.5390167 0
9.8631945 -10.489151 1.5471878 0
9.8632984 -10.548704 1.5553484 0
9.8642416 -10.608433 1.5634084 0
9.8648577 -10.667377 1.5714087 0
9.8657846 -10.726345 1.5793667 0
9.8674679 -10.785851 1.5872884 0
9.8689709 -10.844454 1.5951104 0
9.8708582 -10.90307 1.6028776 0
9.8731213 -10.962396 1.6106877 0
9.8756428 -11.021239 1.6183929 0
9.8787575 -11.079556 1.6259375 0
9.8822107 -11.137985 1.6334486 0
9.8813152 -11.19642 1.6374621 0
9.8745689 -11.254026 1.6366258 0
9.8685627 -11.310726 1.6357837 0
9.8625622 -11.368578 1.6349201 0
9.856988 -11.427028 1.6340332 0
9.8522778 -11.484178 1.6331434 0
9.8471851 -11.541502 1.6322627 0
9.8425207 -11.599615 1.6314645 0
9.8428946 -11.657392 1.634285 0
9.8438969 -11.715335 1.6371846 0
9.8453407 -11.773055 1.6401224 0
9.8470592 -11.831127 1.6431088 0
9.8495388 -11.889349 1.6461868 0
9.8522968 -11.946739 1.6492562 0
9.8552303 -12.004279 1.6523533 0
9.8583975 -12.061971 1.6554828 0
9.8622437 -12.12 1.6587043 0
9.8669024 -12.177977 1.662015 0
9.8716946 -12.235515 1.6653194 0
9.8762712 -12.292818 1.6685882 0
9.8815107 -12.349874 1.6719184 0
9.8874683 -12.407636 1.675364 0
9.8937206 -12.465158 1.6788306 0
9.9005184 -12.522228 1.6823368 0
9.9076195 -12.579422 1.6858826 0
9.9149246 -12.636391 1.6894407 0
9.9468765 -12.692373 1.7124414 0
9.9982605 -12.74596 1.7505126 0
10.045685 -12.799072 1.7853212 0
10.057167 -12.85586 1.7911944 0
10.072163 -12.911732 1.799572 0
10.099247 -12.965237 1.8170786 0
10.126835 -13.019419 1.8348036 0
10.154414 -13.073506 1.8524971 0
10.181782 -13.126798 1.8699274 0
10.209148 -13.179727 1.8872361 0
10.237521 -13.232678 1.9045343 0
10.261499 -13.286307 1.9178576 0
10.279895 -13.339744 1.9268236 0
10.298492 -13.392883 1.9356928 0
10.317336 -13.446673 1.9446669 0
10.336548 -13.499724 1.9534192 0
10.355869 -13.55245 1.9620824 0
10.375372 -13.605654 1.9708233 0
10.395526 -13.658462 1.9793735 0
10.415291 -13.710884 1.9879003 0
10.435467 -13.762432 1.9961677 0
10.458759 -13.814187 2.0064926 0
10.511011 -13.860451 2.040647 0
10.71294 -13.874956 2.1965508 0
10.726246 -13.926656 2.1984429 0
10.734243 -13.979315 2.1962538 0
10.71806 -14.038219 2.1736455 0
10.708885 -14.095454 2.1559868 0
10.706516 -14.151665 2.1439409 0
10.704445 -14.207575 2.1319256 0
10.703076 -14.263275 2.1198707 0
10.701502 -14.319906 2.1076365 0
10.700257 -14.375603 2.0955634 0
10.679207 -14.437533 2.0665927 0
10.669561 -14.497739 2.0465751 0
10.685678 -14.549694 2.0476885 0
10.701956 -14.601336 2.0487323 0
10.718756 -14.653895 2.049737 0
10.73579 -14.705849 2.0506258 0
10.752799 -14.758118 2.0515523 0
10.770119 -14.809681 2.0523338 0
10.787594 -14.86091 2.0530462 0
10.805302 -14.913067 2.0537901 0
10.823517 -14.964964 2.0543866 0
10.841579 -15.016191 2.0549545 0
10.860062 -15.067352 2.0554142 0
10.879204 -15.119 2.0557594 0
10.897976 -15.170109 2.0561433 0
10.918602 -15.220509 2.0579028 0
10.943253 -15.269513 2.0624399 0
10.967854 -15.318405 2.0669641 0
10.992886 -15.367302 2.0714245 0
11.017979 -15.416311 2.0758944 0
11.043229 -15.464758 2.0802445 0
11.069006 -15.512257 2.0843539 0
11.094925 -15.560496 2.0885673 0
11.121075 -15.609089 2.0928059 0
11.147187 -15.657099 2.096952 0
11.173237 -15.70472 2.1007271 0
11.199694 -15.752129 2.1043172 0
11.226234 -15.800171 2.1079955 0
11.210899 -15.867011 2.074163 0
11.228144 -15.918445 2.0688982 0
11.245299 -15.970732 2.0636454 0
11.263081 -16.023062 2.0582247 0
11.281135 -16.075233 2.0527306 0
11.299327 -16.127163 2.0472035 0
11.317681 -16.179081 2.0416303 0
11.336489 -16.231009 2.0359364 0
11.355598 -16.28274 2.0301614 0
11.374777 -16.334635 2.0243688 0
11.394339 -16.386557 2.0184703 0
11.414534 -16.438129 2.0127549 0
11.435278 -16.489525 2.0073915 0
11.456365 -16.540844 2.0019407 0
11.477811 -16.59182 1.996397 0
11.499161 -16.642794 1.9908776 0
11.521014 -16.694281 1.9852281 0
11.543074 -16.745409 1.9795251 0
11.565332 -16.796295 1.9737692 0
11.588091 -16.847181 1.967885 0
11.610981 -16.898159 1.9620199 0
11.635468 -16.948313 1.957263 0
11.660118 -16.998098 1.9524488 0
11.685264 -17.047924 1.9475031 0
11.710552 -17.097624 1.9425168 0
11.735829 -17.147356 1.9375339 0
11.761503 -17.197411 1.9324546 0
11.78735 -17.246922 1.9273129 0
11.813415 -17.296268 1.9221034 0
11.842875 -17.343487 1.9196997 0
11.879672 -17.385582 1.9238825 0
12.209226 -17.216734 2.2172399 0
12.259103 -17.246323 2.2356462 0
12.310791 -17.273428 2.2555761 0
12.354607 -17.307165 2.267529 0
12.390472 -17.346735 2.2715769 0
12.4275 -17.385122 2.2763925 0
12.464979 -17.422831 2.2815628 0
12.502823 -17.460379 2.2869186 0
12.541822 -17.497385 2.2928743 0
12.580797 -17.532907 2.2992029 0
12.62009 -17.568672 2.3055949 0
12.660236 -17.604383 2.3123393 0
12.701117 -17.639194 2.3196096 0
12.74221 -17.672932 2.32724 0
12.783875 -17.706003 2.3352685 0
12.83865 -17.728344 2.3567591 0
12.894014 -17.749487 2.3790884 0
12.950157 -17.768745 2.4021292 0
13.006838 -17.787304 2.4255514 0
13.062685 -17.806646 2.4484367 0
13.118675 -17.824532 2.4716563 0
13.175397 -17.842207 2.4952588 0
13.215847 -17.874628 2.5008307 0
13.245499 -17.916714 2.4945321 0
13.275286 -17.959921 2.4880257 0
13.305937 -18.001625 2.481863 0
13.336718 -18.043114 2.47575 0
13.367516 -18.08498 2.4695659 0
13.407936 -18.117332 2.473762 0
13.44908 -18.148775 2.4786782 0
13.490519 -18.179832 2.4836769 0
13.532463 -18.21069 2.4887829 0
13.574402 -18.240763 2.4939494 0
13.594358 -18.294052 2.4734106 0
13.61367 -18.349722 2.4513054 0
13.634418 -18.40449 2.4298201 0
13.656084 -18.457262 2.4093671 0
13.677636 -18.51137 2.3882971 0
13.69956 -18.565784 2.3671455 0
13.726397 -18.61487 2.3514204 0
13.790859 -18.620098 2.3814077 0
13.854456 -18.625269 2.4109902 0
13.917845 -18.629173 2.4406447 0
13.981434 -18.632582 2.4704618 0
14.044506 -18.636353 2.4999828 0
14.076586 -18.678213 2.4897103 0
14.108999 -18.720602 2.4791098 0
14.141529 -18.762939 2.4685159 0
14.174457 -18.803747 2.4582481 0
14.208101 -18.844746 2.4481511 0
14.247192 -18.878891 2.4453402 0
14.286896 -18.911884 2.4427228 0
14.326826 -18.945208 2.4400716 0
14.365519 -18.980053 2.4356432 0
14.40288 -19.016779 2.4287858 0
14.44028 -19.053398 2.4219518 0
14.481264 -19.085632 2.4194431 0
14.541393 -19.089046 2.4442673 0
14.560026 -19.153646 2.4097772 0
14.579355 -19.218962 2.3746476 0
14.617538 -19.256041 2.3662162 0
14.66478 -19.279234 2.3714142 0
14.730504 -19.27269 2.4042883 0
14.806718 -19.24872 2.4527216 0
14.882075 -19.225279 2.5007849 0
14.955992 -19.201807 2.5476074 0
15.029516 -19.178328 2.5940924 0
15.101974 -19.154873 2.6396914 0
15.172922 -19.132393 2.6837139 0
15.242056 -19.11248 2.7255921 0
15.310127 -19.092468 2.7665691 0
15.377528 -19.07238 2.8069696 0
15.444647 -19.052429 2.8472333 0
15.510672 -19.032547 2.8865666 0
15.575391 -19.013058 2.9242439 0
15.63983 -18.99391 2.9619231 0
15.703208 -18.975252 2.9990935 0
15.766085 -18.95632 3.0357008 0
15.828776 -18.937101 3.0719819 0
15.890431 -18.918125 3.1076164 0
15.950943 -18.899216 3.1424069 0
16.011623 -18.880217 3.1772728 0
16.071854 -18.861368 3.2118845 0
16.130802 -18.842556 3.2455287 0
16.189285 -18.823689 3.2787776 0
16.247749 -18.804686 3.311924 0
16.305534 -18.785707 3.3445616 0
16.362072 -18.767256 3.3765683 0
16.418402 -18.748524 3.4082379 0
16.47464 -18.729349 3.4395523 0
16.530134 -18.710667 3.4706054 0
16.584837 -18.692076 3.5011058 0
16.636353 -18.680168 3.5251365 0
16.687418 -18.669334 3.5484929 0
16.73802 -18.658501 3.5715647 0
16.788054 -18.647142 3.5939164 0
16.837875 -18.63595 3.6162577 0
16.887486 -18.624846 3.6385326 0
16.936642 -18.613586 3.6604214 0
16.985603 -18.602184 3.6820903 0
17.034039 -18.590626 3.7033267 0
17.082094 -18.579208 3.7244298 0
17.129879 -18.567705 3.7453086 0
17.177505 -18.556234 3.766115 0
17.224894 -18.544477 3.7865722 0
17.271791 -18.532719 3.8067281 0
17.318237 -18.520851 3.8265316 0
17.364496 -18.509008 3.8462367 0
17.410696 -18.497208 3.8659387 0
17.456436 -18.485201 3.8852134 0
17.501818 -18.473101 3.904202 0
17.547058 -18.46093 3.923054 0
17.592045 -18.448999 3.9419234 0
17.636555 -18.436802 3.9603119 0
17.68067 -18.424313 3.9782503 0
17.724794 -18.412048 3.9963584 0
17.768753 -18.399677 4.0142879 0
17.812149 -18.38718 4.0317831 0
17.8554 -18.374945 4.049377 0
17.898518 -18.362059 4.0669622 0
17.941587 -18.347816 4.0853481 0
17.984486 -18.333549 4.1036043 0
18.026939 -18.319096 4.1214371 0
18.069073 -18.30463 4.1390543 0
18.111168 -18.290318 4.1567516 0
18.152975 -18.275888 4.1741786 0
18.194366 -18.261402 4.1912928 0
18.235563 -18.247046 4.2083712 0
18.27648 -18.232456 4.2251015 0
18.317112 -18.217821 4.2416143 0
18.357662 -18.203136 4.2580385 0
18.397821 -18.188622 4.2743254 0
18.437817 -18.173969 4.2904072 0
18.477552 -18.159266 4.3061247 0
18.516809 -18.144768 4.3216577 0
18.556129 -18.130085 4.3371 0
18.595213 -18.115301 4.3523188 0
18.633976 -18.100594 4.3673801 0
18.672331 -18.085974 4.3822374 0
18.710651 -18.071014 4.3968329 0
18.74893 -18.056078 4.411418 0
18.786732 -18.04137 4.4258504 0
18.824354 -18.026508 4.4400587 0
18.861691 -18.011499 4.4539757 0
18.898901 -17.996569 4.4678664 0
18.935991 -17.981623 4.4816666 0
18.972786 -17.966465 4.4951258 0
19.009335 -17.951653 4.508666 0
19.045828 -17.9366 4.5217171 0
19.081968 -17.924162 4.5323882 0
19.117748 -17.911964 4.5430379 0
19.153568 -17.899532 4.5535345 0
19.18922 -17.887184 4.5640011 0
19.224714 -17.874704 4.5742798 0
19.26 -17.862049 4.5843124 0
19.295132 -17.849524 4.5943565 0
19.330162 -17.836924 4.6042891 0
19.365042 -17.824059 4.6139359 0
19.39978 -17.81134 4.6236186 0
19.434177 -17.79859 4.6330843 0
19.468622 -17.785734 4.6424994 0
19.502975 -17.772797 4.6518002 0
19.5371 -17.759659 4.6608248 0
19.571033 -17.746758 4.6699219 0
19.604893 -17.733612 4.6787939 0
19.638605 -17.720446 4.6875682 0
19.67215 -17.707321 4.6962805 0
19.705538 -17.69392 4.704699 0
19.738708 -17.680611 4.7130642 0
19.772053 -17.667208 4.7214575 0
19.805145 -17.653788 4.7296963 0
19.837898 -17.640331 4.7377195 0
19.870678 -17.626837 4.7457314 0
19.903349 -17.613314 4.7536592 0
19.935904 -17.59959 4.7613716 0
19.968176 -17.585896 4.768949 0
20.001242 -17.577946 4.7718115 0
20.034439 -17.570963 4.7735395 0
20.067459 -17.564003 4.7752409 0
20.100647 -17.556929 4.7768469 0
20.133703 -17.549877 4.77844 0
20.166677 -17.54273 4.7798834 0
20.199665 -17.53533 4.7810025 0
20.23254 -17.528118 4.7823315 0
20.265482 -17.520639 4.7833328 0
20.298449 -17.513069 4.7842236 0
20.331234 -17.505705 4.7853222 0
20.363989 -17.498072 4.7860641 0
20.396803 -17.490343 4.7866993 0
20.429686 -17.482483 4.7871904 0
20.462494 -17.474651 4.7876887 0
20.49519 -17.466843 4.7881823 0
20.527882 -17.458773 4.7883348 0
20.560431 -17.45022 4.788938 0
20.59289 -17.441072 4.7899485 0
20.625273 -17.431763 4.79072 0
20.657572 -17.422361 4.791338 0
20.689886 -17.412977 4.7919874 0
20.722145 -17.403563 4.7925744 0
20.754417 -17.393839 4.7927685 0
20.786627 -17.384274 4.7931423 0
20.818806 -17.374714 4.7935104 0
20.851049 -17.364765 4.7934046 0
20.883209 -17.354887 4.793355 0
20.915241 -17.345125 4.7934036 0
20.947395 -17.335112 4.7931809 0
20.97953 -17.324991 4.7928085 0
21.011547 -17.314817 4.7923231 0
21.04365 -17.304586 4.7917976 0
21.075712 -17.294369 4.7912731 0
21.107712 -17.283957 4.790472 0
21.13969 -17.273594 4.7897272 0
21.171761 -17.26296 4.7886696 0
21.203682 -17.252308 4.7875295 0
21.235592 -17.241796 4.7865658 0
21.267155 -17.229614 4.7863936 0
21.297291 -17.214174 4.7889175 0
21.327274 -17.198793 4.7914114 0
21.357244 -17.183321 4.7938147 0
21.387131 -17.167746 4.7960758 0
21.417044 -17.151945 4.7981453 0
21.446867 -17.13633 4.8003368 0
21.47653 -17.120644 4.8023701 0
21.506214 -17.104719 4.8041992 0
21.535858 -17.088766 4.8059802 0
21.565409 -17.072786 4.8076825 0
21.594942 -17.05673 4.8093066 0
21.624283 -17.040539 4.8107004 0
21.653643 -17.024433 4.8121805 0
21.683092 -17.00819 4.8135881 0
21.712261 -16.99189 4.814785 0
21.741474 -16.97562 4.8160343 0
21.770712 -16.95908 4.8170481 0
21.79977 -16.942293 4.8177404 0
21.828827 -16.92572 4.8186226 0
21.857693 -16.909351 4.8195896 0
21.886696 -16.892529 4.8202162 0
21.915701 -16.875618 4.8207588 0
21.944456 -16.858707 4.8211689 0
21.973173 -16.841738 4.8215003 0
22.00194 -16.824682 4.8217802 0
22.030642 -16.807499 4.8219056 0
22.059263 -16.790432 4.8220963 0
22.087944 -16.773104 4.8220782 0
22.116501 -16.755728 4.8219485 0
22.145037 -16.738358 4.8218098 0
22.173454 -16.720991 4.8216114 0
22.201923 -16.703276 4.8211203 0
22.230385 -16.685524 4.8205919 0
22.258635 -16.668013 4.8201656 0
22.286831 -16.650251 4.8194828 0
22.315189 -16.632364 4.8187709 0
22.3435 -16.614311 4.8178835 0
22.371605 -16.596289 4.816906 0
22.399252 -16.577187 4.8166952 0
22.416296 -16.5436 4.8308415 0
22.432888 -16.509907 4.8449297 0
22.449463 -16.476105 4.8589306 0
22.465902 -16.442633 4.8728476 0
22.48214 -16.409159 4.8863883 0
22.498249 -16.375977 4.8998394 0
22.51413 -16.343235 4.9130836 0
22.529943 -16.310293 4.9261074 0
22.545725 -16.277172 4.938983 0
22.56126 -16.244717 4.9517326 0
22.576664 -16.212168 4.9641991 0
22.591942 -16.17979 4.9765129 0
22.607008 -16.147856 4.9886532 0
22.621983 -16.11578 5.0005612 0
22.636934 -16.083773 5.0124564 0
22.65168 -16.051964 5.0240726 0
22.666332 -16.020224 5.0355487 0
22.680853 -15.988683 5.0468826 0
22.695255 -15.957312 5.0580802 0
22.709534 -15.92596 5.0690584 0
22.723639 -15.894658 5.0797462 0
22.737696 -15.863508 5.0904179 0
22.751574 -15.83275 5.1009512 0
22.765385 -15.801924 5.11133 0
22.779095 -15.77098 5.1214662 0
22.792612 -15.740423 5.1314363 0
22.806103 -15.70986 5.1413527 0
22.819466 -15.679585 5.1511745 0
22.83276 -15.649225 5.1608305 0
22.845884 -15.61875 5.1701221 0
22.858894 -15.58879 5.1794505 0
22.871872 -15.558843 5.1887264 0
22.884705 -15.528727 5.1976552 0
22.897438 -15.499035 5.2066073 0
22.910027 -15.469362 5.2153044 0
22.919884 -15.436939 5.2267656 0
22.929173 -15.404827 5.2387209 0
22.938293 -15.372609 5.2503376 0
22.947327 -15.340317 5.2617793 0
22.956299 -15.308342 5.2731628 0
22.965162 -15.276695 5.2843943 0
22.97389 -15.24519 5.2953997 0
22.982559 -15.213373 5.3062387 0
22.991138 -15.182049 5.3169937 0
22.999634 -15.150878 5.3276176 0
23.007982 -15.119577 5.3379421 0
23.01626 -15.088642 5.3481994 0
23.02445 -15.057825 5.3583107 0
23.032549 -15.02701 5.3682508 0
23.040558 -14.996605 5.3780904 0
23.048462 -14.966 5.3877039 0
23.056326 -14.935258 5.3972125 0
23.064096 -14.905196 5.4065232 0
23.071949 -14.87532 5.4156141 0
23.079695 -14.845376 5.4244895 0
23.087376 -14.815557 5.4332633 0
23.095045 -14.78581 5.4420347 0
23.102547 -14.756382 5.4505434 0
23.109968 -14.72694 5.4589043 0
23.11734 -14.697284 5.4671259 0
23.124556 -14.668207 5.475163 0
23.13176 -14.638896 5.4831324 0
23.138943 -14.609627 5.4910693 0
23.145935 -14.580929 5.4987588 0
23.152905 -14.551682 5.5062943 0
23.159811 -14.523022 5.5138273 0
23.166651 -14.494428 5.5212431 0
23.17341 -14.465447 5.5284352 0
23.18005 -14.436856 5.5354719 0
23.186655 -14.408678 5.5425282 0
23.192148 -14.379732 5.5504727 0
23.197172 -14.350107 5.5586233 0
23.202065 -14.321226 5.5665579 0
23.206875 -14.292425 5.5743365 0
23.211596 -14.263408 5.5819368 0
23.216335 -14.234519 5.5895796 0
23.221018 -14.205997 5.5971289 0
23.225567 -14.177659 5.604434 0
23.230106 -14.148932 5.6117039 0
23.234566 -14.120589 5.6188359 0
23.238926 -14.092519 5.6257915 0
23.243242 -14.064037 5.6326437 0
23.247475 -14.035789 5.639348 0
23.251616 -14.008102 5.6459041 0
23.255781 -13.980128 5.652492 0
23.259865 -13.95193 5.6589136 0
23.263874 -13.924188 5.6652174 0
23.267817 -13.896639 5.6713996 0
23.271648 -13.869018 5.6773696 0
23.275894 -13.841555 5.6830025 0
23.280106 -13.814057 5.6885223 0
23.284252 -13.786651 5.6939216 0
23.288284 -13.759852 5.6991577 0
23.292294 -13.732681 5.7043147 0
23.296261 -13.705332 5.7093673 0
23.300129 -13.678312 5.7142653 0
23.303961 -13.651411 5.7190995 0
23.307697 -13.624665 5.7237668 0
23.311447 -13.597687 5.728435 0
23.315166 -13.570939 5.7330656 0
23.318758 -13.544112 5.737442 0
23.323833 -13.518126 5.7404842 0
23.32889 -13.492221 5.7433639 0
23.333939 -13.46579 5.7460885 0
23.33893 -13.439653 5.748785 0
23.343845 -13.413915 5.7514353 0
23.348721 -13.387743 5.7538958 0
23.353533 -13.361634 5.7562542 0
23.358351 -13.335808 5.7586932 0
23.363083 -13.309904 5.7609501 0
23.367744 -13.283936 5.7630534 0
23.372326 -13.258004 5.7650118 0
23.376917 -13.232105 5.7669954 0
23.381466 -13.206155 5.7688847 0
23.385862 -13.180577 5.7705817 0
23.390278 -13.154655 5.7722197 0
23.394682 -13.128778 5.7738504 0
23.398975 -13.10306 5.7753096 0
23.403219 -13.077148 5.7766218 0
23.407495 -13.051256 5.7780027 0
23.413034 -13.025683 5.7780685 0
23.418446 -13.000473 5.7780046 0
23.423897 -12.975051 5.7779322 0
23.429331 -12.94927 5.777668 0
23.434715 -12.923601 5.7773528 0
23.440052 -12.898187 5.777051 0
23.445358 -12.872663 5.7766395 0
23.450577 -12.847128 5.7760458 0
23.455727 -12.821692 5.775352 0
23.462362 -12.796036 5.773427 0
23.470043 -12.770878 5.7705035 0
23.477657 -12.745787 5.7674971 0
23.485344 -12.720213 5.764287 0
23.49292 -12.694937 5.7610698 0
23.500483 -12.669614 5.7577972 0
23.508106 -12.6439 5.7543631 0
23.515633 -12.618249 5.7507801 0
23.523115 -12.592664 5.7471628 0
23.530592 -12.567044 5.7435093 0
23.537916 -12.541725 5.7397661 0
23.545368 -12.515623 5.7357178 0
23.552788 -12.489481 5.7315769 0
23.560049 -12.463871 5.7275019 0
23.567419 -12.437593 5.7231684 0
23.574724 -12.411506 5.7188396 0
23.581955 -12.385594 5.7144928 0
23.589205 -12.359253 5.7098727 0
23.596384 -12.333086 5.7052441 0
23.603577 -12.306732 5.7005043 0
23.610716 -12.280302 5.6956043 0
23.618902 -12.253832 5.6897993 0
23.62854 -12.227061 5.6826172 0
23.638062 -12.200557 5.6754642 0
23.647585 -12.173944 5.6681995 0
23.657112 -12.147093 5.6607003 0
23.666727 -12.12 5.6531363 0
23.645712 -12.093127 5.5806856 0
23.655207 -12.06594 5.5727682 0
23.66358 -12.038978 5.5655107 0
23.667864 -12.011941 5.5615301 0
23.672169 -11.984577 5.5574322 0
23.676376 -11.957349 5.5531778 0
23.680569 -11.929923 5.548789 0
23.684746 -11.902491 5.5443602 0
23.688858 -11.875251 5.5398798 0
23.692959 -11.847613 5.5351677 0
23.696991 -11.820102 5.5303621 0
23.701008 -11.792582 5.525517 0
23.705036 -11.764575 5.5204487 0
23.709019 -11.736748 5.5153656 0
23.712921 -11.708987 5.5101309 0
23.716816 -11.681005 5.5047693 0
23.720678 -11.653064 5.4993515 0
23.724476 -11.624908 5.4936757 0
23.728241 -11.59679 5.4879408 0
23.732002 -11.568573 5.4821496 0
23.735777 -11.539978 5.4761896 0
23.739449 -11.511579 5.4700985 0
23.743118 -11.483007 5.4639125 0
23.746778 -11.454376 5.4576693 0
23.750299 -11.425806 5.4511385 0
23.753841 -11.396914 5.4444933 0
23.757427 -11.367964 5.4379158 0
23.760906 -11.339057 5.431119 0
23.76618 -11.309572 5.4226265 0
23.771465 -11.280138 5.4140282 0
23.776709 -11.250553 5.4052191 0
23.781998 -11.220536 5.3962049 0
23.787287 -11.190355 5.3870687 0
23.792477 -11.16045 5.3778877 0
23.792156 -11.131608 5.3731408 0
23.789003 -11.103082 5.3706598 0
23.785784 -11.074505 5.3679953 0
23.782532 -11.045884 5.3652525 0
23.77927 -11.017395 5.3624444 0
23.775913 -10.988723 5.3594074 0
23.772551 -10.960138 5.356338 0
23.769138 -10.931551 5.3531203 0
23.765667 -10.902836 5.3497686 0
23.762199 -10.87412 5.3464246 0
23.758657 -10.845263 5.3428965 0
23.755033 -10.816481 5.3391185 0
23.751377 -10.787618 5.3352652 0
23.747692 -10.758592 5.3313613 0
23.743969 -10.729671 5.3273306 0
23.740183 -10.700665 5.3231344 0
23.736357 -10.671672 5.3188257 0
23.732496 -10.642565 5.3144388 0
23.728579 -10.613216 5.3099475 0
23.72463 -10.584054 5.3053236 0
23.720613 -10.5549 5.3004971 0
23.716524 -10.525277 5.2955737 0
23.712404 -10.49592 5.2904987 0
23.708258 -10.466543 5.2853503 0
23.704069 -10.437078 5.2801046 0
23.699808 -10.407537 5.2746668 0
23.695501 -10.377752 5.2691545 0
23.691135 -10.347908 5.263483 0
23.686716 -10.318009 5.2576776 0
23.682251 -10.288223 5.2517052 0
23.677765 -10.258423 5.2456799 0
23.673203 -10.228305 5.2395105 0
23.668539 -10.19792 5.233109 0
23.663891 -10.167795 5.2266898 0
23.659174 -10.137611 5.220088 0
23.654404 -10.107293 5.2133694 0
23.649549 -10.076564 5.2064953 0
23.64465 -10.046185 5.1994152 0
23.638651 -10.016222 5.193285 0
23.632822 -9.9856462 5.1867523 0
23.626972 -9.9553833 5.1800723 0
23.621048 -9.9249554 5.1732407 0
23.615074 -9.8943291 5.166337 0
23.608997 -9.8634911 5.1592188 0
23.602863 -9.8327827 5.1519132 0
23.596693 -9.8020363 5.1445246 0
23.590443 -9.7709742 5.1370096 0
23.584131 -9.7399168 5.1293306 0
23.577736 -9.7088327 5.1214399 0
23.571335 -9.6778469 5.1135044 0
23.564871 -9.6465187 5.1055012 0
23.558273 -9.614852 5.0972414 0
23.551704 -9.5831699 5.0886884 0
23.545813 -9.5512333 5.0794492 0
23.539761 -9.5189285 5.0700216 0
23.533592 -9.486701 5.0604963 0
23.5273 -9.4543362 5.0508432 0
23.52087 -9.4217272 5.0410376 0
23.51438 -9.3894053 5.0312085 0
23.507771 -9.3565598 5.0212126 0
23.500982 -9.3234701 5.0110221 0
23.494114 -9.2906828 5.0007954 0
23.487186 -9.2577629 4.9905014 0
23.480118 -9.2248383 4.9800787 0
23.472824 -9.1917877 4.9694371 0
23.465412 -9.158124 4.9586134 0
23.457956 -9.1246071 4.9477677 0
23.450396 -9.0912304 4.9368439 0
23.442698 -9.0575218 4.9257565 0
23.434822 -9.0236988 4.9144945 0
23.426737 -8.9898472 4.9030395 0
23.418587 -8.9559517 4.8915205 0
23.410351 -8.9219694 4.8799119 0
23.401909 -8.8876104 4.8680725 0
23.393421 -8.85326 4.8561926 0
23.384853 -8.8187084 4.8442163 0
23.376101 -8.7840385 4.832056 0
23.367109 -8.7495146 4.8197002 0
23.358015 -8.7146473 4.807209 0
23.348806 -8.6794786 4.7945766 0
23.339497 -8.6443052 4.7818527 0
23.356861 -8.5859756 4.7399111 0
23.320349 -8.5739594 4.7557278 0
23.312325 -8.5367527 4.7406702 0
23.30422 -8.4993353 4.725462 0
23.2959 -8.4622517 4.7098985 0
23.287523 -8.4244795 4.6942172 0
23.278954 -8.3862724 4.6781855 0
23.270287 -8.3485508 4.662003 0
23.261576 -8.3104267 4.6457357 0
23.252701 -8.2716789 4.6291599 0
23.243656 -8.232913 4.612298 0
23.234482 -8.1938248 4.5951967 0
23.225224 -8.1546822 4.5779552 0
23.215868 -8.1152601 4.5605345 0
23.206312 -8.0757465 4.5427675 0
23.196606 -8.0360985 4.5247393 0
23.18679 -7.9954815 4.5064883 0
23.176792 -7.9548917 4.4879246 0
23.166691 -7.9146342 4.4691944 0
23.15653 -7.8737926 4.450346 0
23.146177 -7.8323979 4.4311457 0
23.135614 -7.7907476 4.4115791 0
23.124891 -7.7491198 4.3917346 0
23.114075 -7.7071671 4.3717241 0
23.10309 -7.6647263 4.3514023 0
23.091877 -7.6222548 4.3306932 0
23.080654 -7.5792937 4.3099475 0
23.069252 -7.536047 4.2888842 0
23.057636 -7.4927311 4.2674494 0
23.045862 -7.4488869 4.2457304 0
23.022211 -7.4192972 4.2388735 0
22.990223 -7.4003882 4.2430124 0
22.958029 -7.381382 4.2471547 0
22.925835 -7.3625069 4.2511702 0
22.893824 -7.3439326 4.2549734 0
22.86174 -7.3254042 4.2587008 0
22.82967 -7.306911 4.2623997 0
22.79743 -7.28859 4.2658567 0
22.765297 -7.2703934 4.2692385 0
22.733232 -7.2522187 4.2726307 0
22.700933 -7.2342253 4.2757425 0
22.668695 -7.2164249 4.2786942 0
22.636526 -7.1985221 4.2817755 0
22.60434 -7.1806726 4.2847977 0
22.572128 -7.1630859 4.2875528 0
22.539721 -7.1455536 4.2901697 0
22.507421 -7.1280851 4.2927704 0
22.475246 -7.1108761 4.2951765 0
22.44297 -7.0937376 4.2974682 0
22.410446 -7.0764871 4.2997575 0
22.378162 -7.0594912 4.3019085 0
22.345922 -7.0427399 4.3038397 0
22.31328 -7.025713 4.3058605 0
22.280817 -7.0089388 4.3077154 0
22.249176 -6.991148 4.3081541 0
22.218239 -6.9719677 4.3072233 0
22.187208 -6.9528508 4.3061714 0
22.156244 -6.9336791 4.3049655 0
22.125139 -6.9141245 4.3034678 0
22.094088 -6.8947301 4.3018513 0
22.063217 -6.8758202 4.2998857 0
22.032017 -6.8567324 4.2978745 0
22.000746 -6.8373899 4.2960658 0
21.969408 -6.8183446 4.2939262 0
21.938059 -6.7997818 4.2916989 0
21.905777 -6.7823858 4.2910538 0
21.87352 -6.7653303 4.2899966 0
21.841228 -6.748209 4.2890019 0
21.808723 -6.7310419 4.2879152 0
21.776266 -6.7141738 4.2864847 0
21.743742 -6.6972823 4.2850409 0
21.711262 -6.6804347 4.283567 0
21.678551 -6.6635962 4.2819257 0
21.645836 -6.6467991 4.2802296 0
21.613258 -6.6301861 4.2783966 0
21.580498 -6.6137342 4.2762365 0
21.547617 -6.5971503 4.2741566 0
21.514791 -6.5807142 4.2719307 0
21.481924 -6.5644336 4.2694793 0
21.448792 -6.5479512 4.2671003 0
21.415668 -6.5316329 4.2645178 0
21.382763 -6.5144849 4.2608156 0
21.350992 -6.4944239 4.2546759 0
21.319197 -6.4744129 4.2484598 0
21.287075 -6.4544497 4.2419128 0
21.254908 -6.4347858 4.2354069 0
21.222633 -6.4151459 4.2288265 0
21.190224 -6.3954988 4.2221394 0
21.157631 -6.375802 4.2153497 0
21.124866 -6.3562326 4.2082748 0
21.092009 -6.3365278 4.2012653 0
21.059074 -6.3169093 4.1940985 0
21.026194 -6.2975721 4.1866741 0
20.993193 -6.2782178 4.1791677 0
20.959843 -6.2587733 4.1714578 0
20.926346 -6.2391324 4.1638331 0
20.892769 -6.2196884 4.15593 0
20.859001 -6.2004304 4.1476622 0
20.82522 -6.180913 4.1396637 0
20.79143 -6.1616249 4.1314087 0
20.765408 -6.1100545 4.0953274 0
20.74264 -6.0424848 4.0460672 0
20.719515 -5.9743099 3.9960709 0
20.695791 -5.9046588 3.9448087 0
20.671619 -5.8337379 3.89258 0
20.646923 -5.7615328 3.8392391 0
20.619484 -5.6981277 3.7931206 0
20.5874 -5.6548405 3.7634163 0
20.554832 -5.6106544 3.7333214 0
20.52323 -5.5593162 3.6970327 0
20.492271 -5.5020218 3.6554699 0
20.460701 -5.4436636 3.6130869 0
20.42779 -5.3892121 3.5736694 0
20.393791 -5.3390932 3.5379362 0
20.359388 -5.2888112 3.5016823 0
20.324202 -5.2373753 3.4645996 0
20.288603 -5.185606 3.4270258 0
20.252647 -5.1338515 3.3889556 0
20.213774 -5.096436 3.3630037 0
20.174646 -5.0598111 3.337532 0
20.13529 -5.0233192 3.3117228 0
20.095509 -4.9865608 3.2855659 0
20.055223 -4.9492326 3.2591324 0
20.014376 -4.9115748 3.2322268 0
19.973539 -4.874392 3.2050781 0
19.932251 -4.8370633 3.177484 0
19.890356 -4.7990966 3.1495323 0
19.848194 -4.760911 3.1213889 0
19.805717 -4.7227688 3.0928583 0
19.762703 -4.6844678 3.0637908 0
19.720013 -4.6327119 3.0239162 0
19.675856 -4.5990639 2.9985766 0
19.631296 -4.5657487 2.9726448 0
19.58613 -4.53161 2.9465694 0
19.540588 -4.4987626 2.9214044 0
19.494516 -4.4771643 2.904892 0
19.448191 -4.4555902 2.8882232 0
19.401468 -4.4340758 2.8713007 0
19.354645 -4.4125109 2.8543444 0
19.307564 -4.3912296 2.8371139 0
19.26 -4.3698697 2.8196421 0
19.212173 -4.3482847 2.8021216 0
19.16431 -4.3272843 2.7843161 0
19.116179 -4.3063207 2.7663426 0
19.067623 -4.2849951 2.7482886 0
19.018984 -4.2654691 2.7309656 0
18.970242 -4.2498112 2.7168932 0
18.921103 -4.234374 2.7024961 0
18.871674 -4.2191253 2.6878467 0
18.822351 -4.2035213 2.6734624 0
18.772774 -4.1884437 2.6586399 0
18.722757 -4.1734462 2.6435556 0
18.672649 -4.1584477 2.6284299 0
18.622469 -4.1436086 2.613173 0
18.571955 -4.1290569 2.5975838 0
18.521044 -4.1144147 2.5818586 0
18.469988 -4.0996351 2.5661454 0
18.418982 -4.0850873 2.5503159 0
18.367384 -4.0710106 2.5339212 0
18.315645 -4.0569534 2.5174465 0
18.263771 -4.0428057 2.5009604 0
18.211731 -4.0289483 2.484221 0
18.159479 -4.0149488 2.4674635 0
18.106518 -4.0010524 2.4503045 0
18.053646 -3.9874434 2.4330153 0
18.000444 -3.9741268 2.4153919 0
17.946859 -3.9605818 2.3977213 0
17.893505 -3.9473572 2.3799715 0
17.839815 -3.9344263 2.3618822 0
17.78548 -3.9213057 2.3435955 0
17.730665 -3.9054003 2.3227201 0
17.679525 -3.9106684 2.3191061 0
17.628185 -3.9162769 2.3154368 0
17.576952 -3.9216962 2.3117986 0
17.52562 -3.9268427 2.3073425 0
17.474112 -3.9324589 2.3026209 0
17.422672 -3.9381003 2.2978907 0
17.371201 -3.9436188 2.2932062 0
17.319445 -3.9494967 2.288372 0
17.268133 -3.9558935 2.2833662 0
17.216787 -3.9621291 2.278419 0
17.165022 -3.9688931 2.2732511 0
17.113466 -3.9759192 2.2679977 0
17.06209 -3.9827886 2.2628107 0
17.01012 -3.990273 2.2573614 0
16.958302 -3.9977689 2.2519164 0
16.906799 -4.0056567 2.2463422 0
16.855047 -4.0136089 2.2407289 0
16.80348 -4.0218539 2.2350159 0
16.751982 -4.030694 2.2294698 0
16.705366 -4.0554323 2.2376142 0
16.658669 -4.0806136 2.2454162 0
16.612015 -4.1048956 2.2521033 0
16.565607 -4.1286292 2.2588716 0
16.518936 -4.1527395 2.2656102 0
16.472841 -4.1773005 2.2720618 0
16.42696 -4.2016101 2.278522 0
16.380856 -4.2265787 2.2848659 0
16.335346 -4.2515035 2.2910504 0
16.28978 -4.2766318 2.2971959 0
16.244104 -4.302012 2.3033042 0
16.199053 -4.3274961 2.309206 0
16.153969 -4.3533177 2.3150249 0
16.108973 -4.3787713 2.3209186 0
16.057737 -4.3891382 2.3127308 0
16.003567 -4.3927131 2.2983098 0
15.949191 -4.3963432 2.2838197 0
15.894832 -4.400629 2.2691293 0
15.840331 -4.4049802 2.2543845 0
15.7854 -4.4095745 2.2394586 0
15.732559 -4.4189157 2.228435 0
15.681019 -4.4309015 2.2197552 0
15.629196 -4.4431024 2.2109609 0
15.57724 -4.4560413 2.2018223 0
15.525631 -4.4687529 2.1928077 0
15.473707 -4.4816613 2.1836834 0
15.421909 -4.4951262 2.1743169 0
15.369921 -4.5083518 2.1650443 0
15.317876 -4.5221357 2.1555142 0
15.26622 -4.5363235 2.1458249 0
15.208941 -4.5407515 2.127264 0
15.14287 -4.5297332 2.0939217 0
