# .PCD v0.7 - Point Cloud Data file format
VERSION 0.7
FIELDS x y z intensity
SIZE 4 4 4 4
TYPE F F F F
COUNT 1 1 1 1
WIDTH 1461
HEIGHT 1
VIEWPOINT 0 0 0 1 0 0 0
POINTS 1461
DATA ascii
27.312439 -3.0139012 1.8940783 0
27.263632 -2.9557405 1.8873076 0
27.214485 -2.8980689 1.8805881 0
27.165182 -2.8405542 1.8738818 0
27.1117 -2.7888403 1.8707409 0
27.049377 -2.7472506 1.8752513 0
26.981178 -2.7120113 1.8850317 0
26.913593 -2.6763649 1.8942504 0
26.84597 -2.6408935 1.9034014 0
26.77866 -2.6063743 1.912209 0
26.711508 -2.5725069 1.9207778 0
26.643892 -2.5383892 1.9294114 0
26.575945 -2.5039363 1.9381523 0
26.508408 -2.470521 1.9465237 0
26.440998 -2.4376507 1.9546943 0
26.365059 -2.4160595 1.9713306 0
26.286367 -2.398222 1.9905915 0
26.208866 -2.3807087 2.0091066 0
26.131447 -2.3633051 2.0275435 0
26.053989 -2.3464355 2.0456429 0
25.986179 -2.3157625 2.0536642 0
25.921856 -2.2812881 2.0580077 0
25.857693 -2.2470064 2.0623107 0
25.792805 -2.211585 2.0668693 0
25.728069 -2.177681 2.0710192 0
25.660381 -2.1485634 2.0782948 0
25.600204 -2.107439 2.0767441 0
25.542484 -2.0633249 2.0724254 0
23.101538 -5.8856454 4.7908764 0
23.027466 -5.9206905 4.8321514 0
22.955097 -5.9552794 4.8719759 0
22.883482 -5.9893112 4.9116707 0
22.813385 -6.0227513 4.9503365 0
22.744827 -6.0556784 4.9878349 0
22.676853 -6.0882187 5.0251684 0
22.610455 -6.1203103 5.0611949 0
22.545197 -6.1518788 5.0965643 0
22.480242 -6.1832299 5.1318703 0
22.41655 -6.2140703 5.1663485 0
22.3543 -6.2442665 5.1999674 0
22.30127 -6.2585735 5.2220831 0
22.265633 -6.2392716 5.2214937 0
22.229904 -6.2199345 5.2208843 0
22.19409 -6.2006435 5.2201576 0
22.158291 -6.1815233 5.2192278 0
22.122509 -6.1623812 5.2183361 0
22.086622 -6.1432514 5.2173557 0
22.050947 -6.1244378 5.2161283 0
22.014946 -6.1054688 5.2148695 0
21.978756 -6.0865283 5.2134399 0
21.942688 -6.0676856 5.2119751 0
21.90667 -6.0489531 5.2104068 0
21.872152 -6.0264688 5.2063618 0
21.83773 -6.003047 5.2015095 0
21.803381 -5.9798679 5.1964641 0
21.768793 -5.9564977 5.1914134 0
21.734131 -5.9331899 5.1862335 0
21.699406 -5.9099717 5.1809011 0
21.664457 -5.8866234 5.1755161 0
21.629482 -5.8632822 5.1701002 0
21.594379 -5.840168 5.1643276 0
21.559137 -5.8170257 5.1584687 0
21.523689 -5.7936282 5.1527023 0
21.488005 -5.7704005 5.1468554 0
21.452219 -5.7473316 5.1409464 0
21.41641 -5.7245049 5.134757 0
21.38044 -5.7016072 5.1285028 0
21.344206 -5.6786246 5.1221185 0
21.314575 -5.6344843 5.1022701 0
21.295864 -5.5538154 5.0596218 0
21.276667 -5.4718962 5.0159402 0
21.257019 -5.3882833 4.9712477 0
21.231808 -5.3204274 4.9366636 0
21.202154 -5.2659755 4.9100947 0
21.1721 -5.2108235 4.8831472 0
21.141575 -5.1548462 4.8557577 0
21.118191 -5.0698051 4.8101687 0
21.098183 -4.9682069 4.7541194 0
21.077581 -4.8639374 4.6964412 0
21.05645 -4.756876 4.6372671 0
21.034576 -4.647522 4.5765195 0
20.999416 -4.5901923 4.5480843 0
20.966467 -4.5206537 4.5117111 0
20.935484 -4.4387069 4.4675455 0
20.903954 -4.3546371 4.4225435 0
20.870293 -4.276217 4.3807378 0
20.828293 -4.2352629 4.3616924 0
21.57597 -0.091391563 1.8380442 0
21.510046 -0.036408424 1.8129582 0
21.443197 0.018936157 1.7873907 0
21.375349 0.072778702 1.7628531 0
21.306797 0.12328148 1.7401385 0
21.237831 0.17289925 1.7169142 0
21.168617 0.22315407 1.6937518 0
21.098557 0.27402878 1.6703048 0
21.02779 0.32487488 1.6464515 0
20.956926 0.37479401 1.6222539 0
20.882528 0.4003334 1.6125984 0
20.806221 0.41800022 1.6083655 0
20.729879 0.43475151 1.6040349 0
20.654221 0.45002651 1.5996084 0
20.577726 0.46558666 1.5951428 0
20.500942 0.4814167 1.5906839 0
20.424452 0.49588871 1.5861087 0
20.347603 0.51080227 1.5815492 0
20.270782 0.52550125 1.5769711 0
20.193842 0.5387001 1.5722294 0
20.116545 0.55193996 1.5674624 0
20.039511 0.56459999 1.5626569 0
19.961855 0.57745171 1.5578218 0
19.883593 0.58009815 1.5587149 0
19.804064 0.53542519 1.5875726 0
19.723705 0.47179699 1.6278696 0
19.644327 0.40822506 1.6676841 0
19.565948 0.34470749 1.707005 0
19.488401 0.28078365 1.7459202 0
19.411358 0.21710682 1.7845864 0
19.335014 0.15431595 1.8228965 0
19.260002 0.15103722 1.8253555 0
19.184624 0.19615173 1.798141 0
19.108232 0.24151421 1.7702074 0
19.031071 0.30945206 1.7288404 0
18.952251 0.41709232 1.6630702 0
18.874525 0.43848801 1.6492772 0
18.797659 0.43513489 1.6500678 0
18.720545 0.43087006 1.6505551 0
18.643839 0.42643166 1.6509748 0
18.566814 0.42166424 1.6512909 0
18.489693 0.41664982 1.651525 0
18.412827 0.41166687 1.6517649 0
18.336863 0.39299011 1.6602035 0
18.275816 0.19225693 1.7770615 0
18.211073 0.060622215 1.8521976 0
18.146183 -0.051766396 1.9155741 0
18.082438 -0.16154099 1.9776773 0
18.019447 -0.27083874 2.0392475 0
17.956144 -0.36471462 2.0911422 0
17.891739 -0.43479633 2.1286807 0
17.827709 -0.5066843 2.1666193 0
17.764486 -0.57875729 2.2043839 0
17.702118 -0.64942646 2.241519 0
17.640335 -0.71959019 2.2783484 0
17.579268 -0.78981686 2.3149967 0
17.516504 -0.84429073 2.3412871 0
17.451586 -0.88059902 2.3564367 0
17.38686 -0.91600609 2.3715768 0
17.322433 -0.95234394 2.3865991 0
17.258114 -0.98925972 2.401567 0
17.194401 -1.0261354 2.4163795 0
17.131102 -1.0630045 2.4310875 0
17.067883 -1.1002369 2.445756 0
17.005295 -1.1374397 2.4602647 0
16.943108 -1.1750498 2.474649 0
16.880896 -1.2121515 2.4883127 0
16.817162 -1.2415981 2.4974327 0
16.753899 -1.2711983 2.5064735 0
16.690882 -1.3016167 2.515451 0
16.628002 -1.332221 2.5244012 0
16.565519 -1.3632736 2.5332756 0
16.503099 -1.3937931 2.5421562 0
16.440825 -1.4234943 2.5504074 0
16.378773 -1.4547224 2.5585403 0
16.317051 -1.4859905 2.5666275 0
16.255693 -1.5172033 2.5746646 0
16.194317 -1.5484915 2.5827022 0
16.133257 -1.5804214 2.5906839 0
16.069653 -1.6035395 2.5930901 0
16.005322 -1.6228228 2.5930247 0
15.941183 -1.6431923 2.5929461 0
15.876652 -1.663866 2.592865 0
15.812491 -1.6848459 2.5927815 0
15.748521 -1.7055912 2.5926991 0
15.684787 -1.7267199 2.5926118 0
15.620999 -1.74897 2.5925131 0
15.557175 -1.7717724 2.5924077 0
15.493696 -1.7948065 2.592299 0
15.4302 -1.8172159 2.5921969 0
15.367139 -1.840929 2.5922589 0
15.30479 -1.865757 2.5925508 0
15.241959 -1.8910809 2.5928388 0
15.165985 -1.8829899 2.5716567 0
15.088074 -1.8701353 2.5472727 0
15.009356 -1.8582258 2.5226178 0
14.930411 -1.8460217 2.4978976 0
14.850954 -1.8348446 2.4729962 0
14.771424 -1.824338 2.448061 0
14.691502 -1.8131361 2.4230127 0
14.611213 -1.8033514 2.3978257 0
14.529921 -1.7939968 2.372314 0
14.451392 -1.7903709 2.3506842 0
14.378026 -1.797492 2.3360462 0
14.303833 -1.8054914 2.321126 0
14.225239 -1.8042288 2.2998257 0
14.106222 -1.7225981 2.2246203 0
14.024183 -1.7186766 2.2004547 0
13.94872 -1.7284269 2.184865 0
13.873072 -1.7377081 2.1692247 0
13.797323 -1.7468958 2.1535587 0
13.721547 -1.7578487 2.1379385 0
13.64544 -1.7695789 2.1222692 0
13.571685 -1.7846928 2.1090994 0
13.511839 -1.8261347 2.1135192 0
13.452036 -1.8685665 2.117919 0
13.393013 -1.9105825 2.1222577 0
13.33429 -1.9520702 2.1265817 0
13.2756 -1.9948587 2.1308799 0
13.217283 -2.0388117 2.135128 0
13.159163 -2.0816422 2.1393766 0
13.097509 -2.1186161 2.1389432 0
13.027193 -2.1418581 2.1284094 0
12.956768 -2.1661978 2.1182833 0
12.897564 -2.2084284 2.1202917 0
12.838655 -2.2499943 2.1223779 0
12.780072 -2.2920961 2.1243029 0
12.721523 -2.3351307 2.1260409 0
12.663361 -2.3773189 2.1278772 0
12.605337 -2.4202332 2.1295471 0
12.547331 -2.4634957 2.1311469 0
12.489628 -2.5067463 2.1326962 0
12.432261 -2.5506849 2.1340528 0
12.375011 -2.5942564 2.1354613 0
12.317728 -2.6384659 2.1367512 0
12.262232 -2.6852593 2.1392078 0
12.207665 -2.7319598 2.1422911 0
12.153307 -2.7786369 2.1453381 0
12.098814 -2.827035 2.1481519 0
12.044372 -2.8741088 2.1505151 0
11.990137 -2.9209919 2.1527596 0
11.935833 -2.9690042 2.1548371 0
11.882146 -3.0167494 2.1568494 0
11.828531 -3.0648012 2.1588011 0
11.77492 -3.113111 2.1607113 0
11.722181 -3.1618028 2.1630425 0
11.670261 -3.2114558 2.1655722 0
11.621228 -3.2640901 2.1704025 0
11.572474 -3.3172736 2.1753354 0
11.523755 -3.3713422 2.1800971 0
11.477886 -3.4275131 2.1868892 0
11.437997 -3.4893875 2.1987076 0
11.398221 -3.5523748 2.2105055 0
11.359008 -3.6149039 2.2221375 0
11.320442 -3.6768932 2.2335835 0
11.092723 -3.5415864 2.0803699 0
11.048445 -3.6007652 2.0877042 0
11.003201 -3.6580086 2.0939918 0
10.958471 -3.716167 2.1000562 0
10.914333 -3.774436 2.1059513 0
10.870432 -3.8327131 2.1117821 0
10.826456 -3.8912201 2.1176114 0
10.782824 -3.9492288 2.1233993 0
10.739708 -4.0079069 2.128984 0
10.696877 -4.0666366 2.1344876 0
10.654207 -4.1257496 2.1399107 0
10.612076 -4.1848302 2.145195 0
10.569977 -4.2435918 2.1505013 0
10.528205 -4.3028169 2.1556764 0
10.486825 -4.3621058 2.1607413 0
10.447106 -4.4234276 2.1669774 0
10.413738 -4.4890146 2.1774249 0
10.380186 -4.5546598 2.1879983 0
10.346807 -4.6211772 2.1982441 0
10.314289 -4.6860142 2.2082167 0
10.091625 -4.5952106 2.0711093 0
10.021173 -4.6321726 2.0523176 0
9.9514494 -4.6692138 2.0335326 0
9.8800926 -4.7073855 2.0142012 0
9.8095284 -4.745172 1.9950681 0
9.6911564 -4.7462921 1.9394708 0
9.6278839 -4.7918215 1.9258304 0
9.5654621 -4.8370047 1.9123282 0
9.5024519 -4.883111 1.8986163 0
9.4391785 -4.929616 1.8848133 0
9.3765898 -4.9761376 1.8710723 0
9.3143387 -5.0239339 1.8571515 0
9.2519789 -5.0714116 1.8432722 0
9.189888 -5.1196237 1.8292975 0
9.1277447 -5.168725 1.8151684 0
9.0491257 -5.2066951 1.7891755 0
8.9899693 -5.2575092 1.7768869 0
8.9440584 -5.3184199 1.7740002 0
8.8986397 -5.3792109 1.771102 0
8.8660574 -5.4481387 1.7770405 0
8.8382845 -5.5204444 1.7863069 0
8.8077841 -5.5909557 1.7936277 0
8.77843 -5.6615133 1.8008952 0
8.7498589 -5.7318735 1.8081059 0
8.7208776 -5.8034034 1.8154349 0
8.6927557 -5.8739967 1.8226442 0
8.664916 -5.9446139 1.8298392 0
8.6375179 -6.0156937 1.8370509 0
8.611145 -6.087954 1.8443079 0
8.5845327 -6.1593723 1.8515091 0
8.5587645 -6.2298193 1.8585863 0
8.5332518 -6.3015056 1.8657532 0
8.5077877 -6.3728638 1.87289 0
8.4835024 -6.4439898 1.87995 0
8.4595385 -6.5164261 1.8870997 0
8.4350538 -6.5884676 1.8936744 0
8.4107065 -6.6588116 1.9001036 0
8.390934 -6.7320662 1.9088664 0
8.3863239 -6.8131943 1.9276385 0
8.3801422 -6.8923297 1.94559 0
8.3772173 -6.9728799 1.9645801 0
8.3751554 -7.0536957 1.983819 0
8.3728151 -7.1333027 2.0027046 0
8.3717623 -7.2131033 2.0219111 0
8.3721352 -7.2935157 2.0415716 0
8.3730917 -7.3737917 2.0613217 0
8.3740263 -7.4536438 2.0809646 0
8.3718367 -7.5317717 2.0982275 0
8.41821 -7.6290803 2.1463194 0
8.3762341 -7.6897416 2.1368933 0
8.3282928 -7.7485867 2.1234131 0
8.2789125 -7.8062649 2.1083961 0
8.229002 -7.8644319 2.0932679 0
8.178628 -7.9238071 2.0777397 0
8.1291666 -7.9824476 2.0623608 0
8.0793715 -8.0413456 2.0469313 0
8.0293102 -8.1019554 2.0308738 0
7.9801931 -8.1621075 2.0148568 0
7.9307346 -8.2224121 1.9988275 0
7.88095 -8.2836761 1.9824767 0
7.8317595 -8.344882 1.9660597 0
7.7826605 -8.4060068 1.9496584 0
7.73347 -8.4679632 1.9329495 0
7.6845007 -8.5305157 1.9159741 0
7.6352482 -8.5936499 1.8988152 0
7.5859652 -8.657052 1.8815565 0
7.5370798 -8.7204685 1.8642311 0
7.5260363 -8.7952194 1.8700104 0
7.5237646 -8.8725691 1.8809867 0
7.5210333 -8.9485321 1.8917527 0
7.5193129 -9.0255127 1.9026923 0
7.5184803 -9.102704 1.9136877 0
7.5181065 -9.1786461 1.9245176 0
7.5177946 -9.2554283 1.9354696 0
7.5178528 -9.3313684 1.9463134 0
7.5184441 -9.407198 1.9571543 0
7.5193958 -9.4834156 1.9680619 0
7.5220995 -9.5598679 1.979054 0
7.5094357 -9.6329994 1.9807453 0
7.4946833 -9.704833 1.9811568 0
7.4805012 -9.7768087 1.9814177 0
7.4673443 -9.8484974 1.9819889 0
7.4544477 -9.9216909 1.9824824 0
7.4418879 -9.9950085 1.9828868 0
7.4292784 -10.067252 1.9833426 0
7.4173908 -10.139938 1.9836006 0
7.4061108 -10.212646 1.983706 0
7.3947182 -10.285104 1.9838481 0
7.3835707 -10.3584 1.9838967 0
7.3697939 -10.430806 1.9818115 0
7.3575087 -10.503184 1.9802279 0
7.3544865 -10.577797 1.9844437 0
7.3518353 -10.651491 1.9884939 0
7.3494186 -10.725151 1.9924755 0
7.3479919 -10.798966 1.9966435 0
7.3468847 -10.872683 2.0006924 0
7.3458509 -10.94607 2.0046973 0
7.3454103 -11.020044 2.0085206 0
7.3481045 -11.09462 2.0140986 0
7.0213175 -11.141618 1.8210154 0
6.9500599 -11.211845 1.7816377 0
6.8776045 -11.283441 1.741497 0
6.8181944 -11.356171 1.7086029 0
6.8161879 -11.432074 1.7102971 0
6.8146791 -11.508394 1.7119522 0
6.8142214 -11.58538 1.713521 0
6.8141909 -11.66145 1.7150316 0
6.8138828 -11.73813 1.716579 0
6.8141603 -11.814559 1.7180667 0
6.8148565 -11.890519 1.7195048 0
6.8159657 -11.967113 1.7209167 0
6.8176441 -12.043461 1.722271 0
6.8197708 -12.119999 1.7235842 0
6.822135 -12.19651 1.7248764 0
6.8249187 -12.272776 1.7261219 0
6.8281078 -12.349241 1.727334 0
6.8284054 -12.425096 1.7267065 0
6.8264637 -12.501485 1.7242007 0
6.824604 -12.578163 1.721673 0
6.8232117 -12.654229 1.719079 0
6.8226013 -12.731214 1.7163072 0
6.822032 -12.807597 1.7135506 0
6.8215456 -12.883617 1.7107916 0
6.8216019 -12.960363 1.7079058 0
6.82197 -13.037609 1.7049441 0
6.8219585 -13.114309 1.7013402 0
6.8205814 -13.190804 1.6963978 0
6.8189936 -13.268561 1.6914072 0
6.817771 -13.34596 1.6863766 0
6.8169947 -13.42281 1.6813006 0
6.8163261 -13.500009 1.6761818 0
6.8168306 -13.577216 1.6709886 0
6.8431921 -13.65122 1.6812596 0
6.8698359 -13.724966 1.6914864 0
6.8967772 -13.799393 1.7018051 0
6.9234514 -13.872626 1.7119536 0
6.9407902 -13.947315 1.7155523 0
6.952116 -14.023361 1.7152376 0
6.963131 -14.098593 1.7149234 0
6.9748335 -14.174042 1.7146215 0
6.9877148 -14.249379 1.7143483 0
7.0006428 -14.32429 1.714077 0
7.0147791 -14.400198 1.7143874 0
7.0340233 -14.474969 1.7174077 0
7.0533752 -14.548126 1.7203889 0
7.0735731 -14.621632 1.7234249 0
7.0943985 -14.69483 1.7264881 0
7.115119 -14.768868 1.7295656 0
7.1364346 -14.842564 1.7326679 0
7.1410208 -14.919991 1.7248025 0
7.126502 -15.001763 1.7050891 0
7.0960798 -15.087466 1.6754704 0
7.0577517 -15.176515 1.6402264 0
7.0201502 -15.265361 1.605042 0
6.9814625 -15.356209 1.5690718 0
6.9784975 -15.438009 1.5547752 0
7.0042744 -15.511229 1.5581203 0
7.0308771 -15.585144 1.5615091 0
7.0577669 -15.658477 1.5648808 0
7.084507 -15.732161 1.5682621 0
7.112607 -15.804916 1.5716324 0
7.1409788 -15.877523 1.5750017 0
7.168623 -15.951062 1.5775943 0
7.164485 -16.034042 1.5599828 0
7.1601782 -16.117439 1.5423245 0
7.1566105 -16.201115 1.5244021 0
7.1535053 -16.284578 1.5064015 0
7.1505537 -16.368952 1.4881544 0
7.1482096 -16.453548 1.4696918 0
7.1458597 -16.538851 1.4510689 0
7.1439648 -16.623474 1.4324784 0
7.1426163 -16.708315 1.4136891 0
7.140872 -16.795397 1.3945031 0
7.1400242 -16.881258 1.3753467 0
7.1396809 -16.966715 1.3561468 0
7.1461363 -17.050854 1.3408275 0
7.1963644 -17.11692 1.3535962 0
7.2416029 -17.185053 1.3631024 0
7.2708941 -17.259247 1.361537 0
7.3000546 -17.333477 1.3600187 0
7.3299341 -17.408512 1.3583493 0
7.3898392 -17.469551 1.3761907 0
7.486289 -17.512794 1.4182124 0
7.5827465 -17.555 1.4599996 0
7.678957 -17.59737 1.5017433 0
7.7753973 -17.638187 1.5432124 0
7.8714018 -17.677954 1.5842972 0
7.9575138 -17.72287 1.6189203 0
7.9829216 -17.796606 1.6127238 0
8.0089207 -17.869221 1.6065803 0
8.0350761 -17.943676 1.6003017 0
8.0616436 -18.01827 1.5939965 0
8.0885839 -18.091667 1.5877609 0
8.1160688 -18.164593 1.5815358 0
8.1444902 -18.237865 1.5752482 0
8.1734133 -18.310894 1.5689569 0
8.2021456 -18.383705 1.5626884 0
8.2312851 -18.457199 1.5563564 0
8.2616682 -18.53055 1.549984 0
8.3264389 -18.582947 1.5676455 0
8.4285231 -18.61166 1.6112862 0
8.5845776 -18.608072 1.6924767 0
8.7372847 -18.604313 1.7717814 0
8.8867054 -18.599678 1.8488255 0
8.9374352 -18.656702 1.8566208 0
8.9744139 -18.722275 1.8544664 0
9.0118971 -18.786638 1.8521242 0
9.0496206 -18.852051 1.8498135 0
9.0876942 -18.917118 1.8474088 0
9.2379446 -18.905466 1.9257374 0
9.4109459 -18.876839 2.0211711 0
9.4612932 -18.931633 2.0271688 0
9.5118561 -18.985918 2.0332088 0
9.5613804 -19.039845 2.0391088 0
9.7052402 -19.0261 2.1141119 0
9.7391739 -19.09059 2.1077056 0
9.6669998 -19.235077 2.0218172 0
9.671505 -19.323494 1.9920816 0
9.6861343 -19.403715 1.9693151 0
9.6477842 -19.52705 1.9065113 0
9.6697721 -19.603889 1.8889251 0
9.6956272 -19.679205 1.8731165 0
9.7213268 -19.754728 1.8573203 0
9.7476883 -19.828823 1.841538 0
9.7748308 -19.904842 1.8253236 0
9.8023338 -19.97921 1.8092265 0
9.8300238 -20.053495 1.7930937 0
9.8576183 -20.130556 1.7766366 0
9.8915157 -20.201609 1.7642369 0
9.9311504 -20.267706 1.755981 0
9.9705229 -20.334501 1.7475586 0
10.010464 -20.400496 1.7393594 0
10.051281 -20.46615 1.7313285 0
10.114487 -20.511356 1.7404327 0
10.182739 -20.552521 1.7538424 0
10.250748 -20.593039 1.7672267 0
10.323352 -20.62845 1.7840347 0
10.397182 -20.662857 1.8019371 0
10.470825 -20.695826 1.8197036 0
10.544387 -20.728815 1.8374538 0
10.618481 -20.761467 1.8552947 0
10.692476 -20.793158 1.8730497 0
10.766684 -20.824762 1.8908443 0
10.841057 -20.854561 1.9085526 0
10.914782 -20.884659 1.9261436 0
10.991624 -20.912674 1.9461503 0
11.082961 -20.92259 1.9787607 0
11.089708 -21.023893 1.9369607 0
11.09304 -21.130695 1.8910975 0
11.09679 -21.238165 1.8446488 0
11.100571 -21.347466 1.7974329 0
11.118114 -21.443005 1.7613354 0
11.163504 -21.506514 1.7500734 0
11.225975 -21.550156 1.7547002 0
11.286669 -21.595713 1.7575183 0
11.34797 -21.64077 1.760232 0
11.409716 -21.685961 1.7629375 0
11.471313 -21.730328 1.7655382 0
11.533104 -21.774982 1.7681665 0
11.594549 -21.818729 1.7706895 0
11.656876 -21.861465 1.7730212 0
11.719704 -21.90514 1.775454 0
11.782154 -21.949089 1.7779474 0
11.844888 -21.991116 1.7801571 0
11.903267 -22.039003 1.7779264 0
11.959557 -22.09137 1.7731576 0
12.016305 -22.142197 1.7682118 0
12.072962 -22.192142 1.7632179 0
12.130013 -22.243637 1.7582746 0
12.18738 -22.294851 1.7532625 0
12.244959 -22.34481 1.7481313 0
12.303173 -22.393936 1.742847 0
12.367924 -22.434364 1.7444844 0
12.435106 -22.471518 1.7486649 0
12.502516 -22.507545 1.7527657 0
12.569975 -22.542559 1.7567949 0
12.639299 -22.575306 1.7625542 0
12.709444 -22.606441 1.7694588 0
12.779773 -22.63619 1.7762322 0
12.850709 -22.666 1.7830448 0
12.921331 -22.695564 1.7898154 0
12.991861 -22.725296 1.796598 0
13.062429 -22.754139 1.8032908 0
13.133267 -22.781498 1.8098474 0
13.924414 -21.538605 2.6920104 0
14.091482 -21.375437 2.8263249 0
14.252355 -21.217758 2.9554687 0
14.407845 -21.065498 3.0803413 0
14.533922 -20.962307 3.1707621 0
14.629955 -20.911837 3.2247305 0
14.72443 -20.861315 3.2774854 0
14.817913 -20.811178 3.3296304 0
14.909868 -20.762024 3.3809857 0
15.000504 -20.713238 3.4314742 0
15.089772 -20.664742 3.4810257 0
15.177425 -20.616932 3.5296078 0
15.263634 -20.57003 3.577435 0
15.348254 -20.523678 3.6242609 0
15.432043 -20.477226 3.6704097 0
15.514699 -20.431332 3.7159066 0
15.597065 -20.383526 3.7623367 0
15.679531 -20.33272 3.8099856 0
15.760872 -20.282522 3.8569407 0
15.83959 -20.2363 3.9009361 0
15.913174 -20.200195 3.9378157 0
15.984404 -20.167252 3.9722719 0
16.054234 -20.135914 4.0055752 0
16.123894 -20.104397 4.0386372 0
16.192175 -20.073122 4.0708051 0
16.259716 -20.042227 4.1026487 0
16.326801 -20.011253 4.134099 0
16.392797 -19.980379 4.1647825 0
16.458202 -19.950073 4.1953778 0
16.523203 -19.919743 4.2256489 0
16.587208 -19.889765 4.2553854 0
16.650259 -19.859921 4.284483 0
16.712854 -19.829973 4.3131695 0
16.774979 -19.800369 4.3417139 0
16.836269 -19.770811 4.3696551 0
16.896812 -19.741522 4.3971987 0
16.956882 -19.712414 4.4244952 0
17.016249 -19.68355 4.4514141 0
17.075001 -19.654873 4.4779806 0
17.131323 -19.632643 4.4998522 0
17.186268 -19.613235 4.5198898 0
17.240953 -19.59396 4.5398607 0
17.29521 -19.574549 4.559473 0
17.348927 -19.555017 4.5786695 0
17.402393 -19.535728 4.5978823 0
17.455351 -19.516495 4.6168251 0
17.508106 -19.497189 4.6355882 0
17.560318 -19.477814 4.6539717 0
17.612068 -19.458319 4.671988 0
17.663647 -19.439049 4.6900568 0
17.714687 -19.419727 4.7077599 0
17.765221 -19.400583 4.725275 0
17.815619 -19.381243 4.7425704 0
17.865654 -19.361893 4.759635 0
17.915096 -19.342756 4.7764888 0
17.964472 -19.323494 4.7932119 0
18.013586 -19.304239 4.8097796 0
18.062069 -19.28537 4.8258328 0
18.110189 -19.266306 4.8415127 0
18.157963 -19.247494 4.8571625 0
18.205494 -19.22871 4.8726845 0
18.252808 -19.209534 4.8880129 0
18.300001 -19.188507 4.9043956 0
18.346756 -19.167585 4.9205627 0
18.393457 -19.146601 4.9366503 0
18.439749 -19.125589 4.9524527 0
18.485298 -19.104761 4.9678926 0
18.530895 -19.083891 4.983335 0
18.576254 -19.06288 4.9985247 0
18.62109 -19.041962 5.0134344 0
18.665754 -19.021135 5.0282946 0
18.709959 -19.000435 5.0429401 0
18.753977 -18.979696 5.0574403 0
18.797798 -18.958635 5.0715828 0
18.841057 -18.937975 5.0856371 0
18.884335 -18.917181 5.0996099 0
18.927265 -18.896448 5.1133971 0
18.969639 -18.876751 5.1264958 0
19.011904 -18.857635 5.1390228 0
19.053814 -18.838409 5.1512837 0
19.095556 -18.819098 5.1633997 0
19.136976 -18.799988 5.1754532 0
19.178278 -18.780724 5.1873455 0
19.219381 -18.761652 5.1992412 0
19.26 -18.742531 5.2108316 0
19.300432 -18.723223 5.2222052 0
19.340826 -18.703783 5.2334776 0
19.380898 -18.68449 5.2446551 0
19.420662 -18.665382 5.2557688 0
19.460115 -18.639782 5.2704139 0
19.49914 -18.613594 5.2852335 0
19.537981 -18.587528 5.299984 0
19.576586 -18.56601 5.3118734 0
19.61533 -18.548876 5.320858 0
19.65394 -18.531651 5.32968 0
19.692286 -18.514544 5.3384399 0
19.730501 -18.497543 5.3472137 0
19.768429 -18.480453 5.355731 0
19.806255 -18.463165 5.3640118 0
19.843822 -18.446112 5.3723364 0
19.88125 -18.428867 5.3804102 0
19.918709 -18.411461 5.3883581 0
19.955894 -18.394211 5.396275 0
19.992708 -18.377151 5.4041286 0
20.029606 -18.359863 5.4118314 0
20.066313 -18.342316 5.4191918 0
20.102709 -18.325142 5.4266863 0
20.139076 -18.307861 5.4340687 0
20.175339 -18.29038 5.4412117 0
20.211391 -18.272844 5.4481745 0
20.24721 -18.25547 5.4551363 0
20.282888 -18.238262 5.4621553 0
20.318499 -18.220697 5.4688191 0
20.354063 -18.203094 5.4754219 0
20.389364 -18.185604 5.4819584 0
20.42449 -18.168066 5.4883466 0
20.459589 -18.150579 5.4947643 0
20.494484 -18.132986 5.5009594 0
20.529146 -18.115334 5.506958 0
20.563774 -18.09766 5.5129194 0
20.598364 -18.079979 5.5188498 0
20.63271 -18.062263 5.5245991 0
20.667002 -18.044495 5.5302682 0
20.701153 -18.026962 5.5357933 0
20.735331 -18.009739 5.5407486 0
20.769388 -17.992651 5.5457516 0
20.803259 -17.975538 5.5506229 0
20.837143 -17.958218 5.5553193 0
20.872498 -17.946877 5.5563488 0
20.908112 -17.936415 5.5565472 0
20.943815 -17.925892 5.5567012 0
20.979235 -17.91547 5.5568795 0
21.014725 -17.904781 5.5567284 0
21.050415 -17.893942 5.5564547 0
21.08581 -17.883318 5.5563502 0
21.121298 -17.872564 5.5561123 0
21.156858 -17.861643 5.5556774 0
21.192291 -17.85074 5.5552197 0
21.227587 -17.83984 5.5547113 0
21.26305 -17.82873 5.5539889 0
21.298626 -17.817451 5.5530868 0
21.334118 -17.80611 5.5520811 0
21.369413 -17.794708 5.5513048 0
21.404734 -17.783251 5.5504646 0
21.440006 -17.771614 5.5493784 0
21.475304 -17.759932 5.5482416 0
21.510784 -17.748074 5.5469532 0
21.546162 -17.736145 5.5455303 0
21.581432 -17.724266 5.5441308 0
21.616621 -17.712353 5.5426531 0
21.65205 -17.700233 5.5410085 0
21.687418 -17.688089 5.5393043 0
21.722771 -17.675816 5.5374269 0
21.758055 -17.663465 5.535429 0
21.793312 -17.651199 5.5335221 0
21.828897 -17.638636 5.5313654 0
21.864222 -17.626129 5.5291786 0
21.899635 -17.613533 5.5269108 0
21.935125 -17.600779 5.5244703 0
21.97047 -17.588036 5.5219874 0
22.00585 -17.575212 5.5194149 0
22.040123 -17.559721 5.5184178 0
22.072773 -17.54114 5.5194502 0
22.105152 -17.522697 5.5204601 0
22.137587 -17.503849 5.5211248 0
22.170052 -17.484907 5.5217237 0
22.202606 -17.465897 5.5223074 0
22.234859 -17.447121 5.5229397 0
22.267017 -17.428288 5.5234694 0
22.299368 -17.4091 5.5237761 0
22.331472 -17.390135 5.5241537 0
22.363565 -17.370859 5.5242391 0
22.395679 -17.351425 5.5241899 0
22.424957 -17.327734 5.5273771 0
22.448845 -17.295286 5.5364714 0
22.472635 -17.262901 5.5454688 0
22.49633 -17.230572 5.5543604 0
22.519812 -17.198402 5.5630598 0
22.543066 -17.166508 5.5716391 0
22.566238 -17.134531 5.5800161 0
22.589321 -17.102585 5.588275 0
22.612148 -17.070911 5.5963736 0
22.634974 -17.03908 5.6043262 0
22.657593 -17.00761 5.6122732 0
22.680016 -16.976236 5.6199908 0
22.702442 -16.944708 5.6275816 0
22.724703 -16.913378 5.6350827 0
22.746778 -16.882139 5.6423721 0
22.768761 -16.85103 5.6496267 0
22.790607 -16.820038 5.6567683 0
22.812302 -16.789078 5.6636992 0
22.834026 -16.757854 5.6704397 0
22.855482 -16.727074 5.6771507 0
22.876822 -16.696461 5.683826 0
22.893162 -16.659628 5.6949263 0
22.908253 -16.621525 5.7069902 0
22.923237 -16.583715 5.7189713 0
22.938087 -16.545851 5.7307105 0
22.952736 -16.50857 5.7423086 0
22.967197 -16.471619 5.7537098 0
22.98164 -16.434408 5.7649841 0
22.995903 -16.397598 5.7760925 0
23.010012 -16.360697 5.7869062 0
23.023916 -16.324444 5.7975998 0
23.037764 -16.28825 5.8082199 0
23.051521 -16.252111 5.8187037 0
23.065138 -16.216166 5.8290167 0
23.078583 -16.180525 5.8391466 0
23.091948 -16.14476 5.8490925 0
23.105228 -16.109198 5.8589673 0
23.118299 -16.074236 5.8687 0
23.131325 -16.039015 5.8782606 0
23.144186 -16.004189 5.8876858 0
23.156918 -15.969509 5.8969364 0
23.169588 -15.934784 5.9060683 0
23.182117 -15.900286 5.9150381 0
23.19453 -15.865946 5.9238667 0
23.206823 -15.831898 5.9325933 0
23.219044 -15.79789 5.9411016 0
23.232082 -15.764502 5.948822 0
23.244957 -15.731724 5.9565353 0
23.257692 -15.698952 5.9639978 0
23.270357 -15.666103 5.9712963 0
23.282927 -15.633574 5.9785719 0
23.295452 -15.601 5.9857445 0
23.307859 -15.568523 5.9927497 0
23.320154 -15.536094 5.9995718 0
23.330069 -15.502395 6.008112 0
23.338358 -15.467318 6.0176821 0
23.346592 -15.431993 6.0271049 0
23.354715 -15.397336 6.0364337 0
23.362818 -15.362372 6.0456738 0
23.370766 -15.327858 6.0546961 0
23.378553 -15.293684 6.0634785 0
23.386322 -15.259395 6.072207 0
23.394001 -15.225643 6.0808554 0
23.401672 -15.191725 6.0894623 0
23.409208 -15.157854 6.0978236 0
23.416609 -15.124331 6.1059909 0
23.423943 -15.09088 6.1140404 0
23.431175 -15.057877 6.121985 0
23.438391 -15.024729 6.1298656 0
23.44556 -14.99158 6.1376638 0
23.452625 -14.958666 6.1453018 0
23.459564 -14.926076 6.1527624 0
23.46645 -14.89342 6.1601095 0
23.473255 -14.860876 6.1673245 0
23.479963 -14.828861 6.174449 0
23.486599 -14.796548 6.1813846 0
23.493187 -14.764308 6.1882458 0
23.499735 -14.732418 6.1950884 0
23.506157 -14.700633 6.2017179 0
23.51255 -14.668873 6.2082911 0
23.518843 -14.637336 6.2147179 0
23.525097 -14.605879 6.2210855 0
23.531296 -14.574389 6.2273417 0
23.537395 -14.542987 6.233427 0
23.543484 -14.511873 6.2395439 0
23.549402 -14.480939 6.245369 0
23.555513 -14.450005 6.2509823 0
23.560799 -14.418872 6.2571373 0
23.565052 -14.387383 6.2637215 0
23.569237 -14.355642 6.2701626 0
23.573353 -14.324372 6.2764974 0
23.577503 -14.293319 6.2829061 0
23.581549 -14.262067 6.2891049 0
23.585472 -14.231136 6.2950835 0
23.589365 -14.200398 6.3010159 0
23.593239 -14.169464 6.3069048 0
23.597065 -14.138596 6.3127022 0
23.600819 -14.108129 6.3183813 0
23.604486 -14.077835 6.323905 0
23.608078 -14.04743 6.3292756 0
23.611654 -14.016985 6.3346205 0
23.615198 -13.987009 6.33992 0
23.618671 -13.956962 6.3450861 0
23.62208 -13.926788 6.350121 0
23.627085 -13.897532 6.3540082 0
23.632032 -13.868278 6.3576965 0
23.63695 -13.839319 6.3613601 0
23.641838 -13.810386 6.3650036 0
23.646599 -13.781399 6.3685637 0
23.651266 -13.752361 6.3720598 0
23.655849 -13.723302 6.3755002 0
23.660273 -13.694295 6.3788328 0
23.664639 -13.665475 6.3821225 0
23.668974 -13.636857 6.3853903 0
23.673128 -13.607953 6.3885398 0
23.677261 -13.579252 6.3917141 0
23.681129 -13.55055 6.3948812 0
23.686275 -13.522243 6.3970122 0
23.692755 -13.49454 6.3983374 0
23.699181 -13.466647 6.3995881 0
23.705473 -13.438669 6.4007111 0
23.711681 -13.410947 6.4018006 0
23.717859 -13.383359 6.4028835 0
23.724001 -13.355259 6.4038558 0
23.730032 -13.327507 6.4047871 0
23.735964 -13.299795 6.4056387 0
23.74185 -13.271765 6.4064016 0
23.747641 -13.244152 6.4071455 0
23.753376 -13.216272 6.4078007 0
23.759018 -13.188396 6.4083757 0
23.764603 -13.160652 6.4089217 0
23.77018 -13.13283 6.4094481 0
23.775614 -13.104894 6.4098358 0
23.780979 -13.076868 6.4101467 0
23.786283 -13.049191 6.4104605 0
23.791531 -13.021415 6.4107103 0
23.796679 -12.993731 6.4108882 0
23.801764 -12.96574 6.4109631 0
23.806829 -12.937663 6.4110088 0
23.811813 -12.909796 6.4110169 0
23.816742 -12.881832 6.4109588 0
23.821007 -12.853884 6.4111099 0
23.824625 -12.825843 6.4115634 0
23.828245 -12.797609 6.4119978 0
23.831703 -12.769491 6.4123049 0
23.835115 -12.741385 6.4125714 0
23.840824 -12.713489 6.4114041 0
23.849789 -12.686193 6.4081898 0
23.858799 -12.658518 6.4048166 0
23.867729 -12.630883 6.4013534 0
23.876598 -12.603293 6.3978233 0
23.885435 -12.575635 6.3942094 0
23.894279 -12.547801 6.3905015 0
23.903126 -12.519801 6.3866963 0
23.911913 -12.491936 6.3828869 0
23.920689 -12.463881 6.3789463 0
23.929499 -12.435537 6.3748884 0
23.938236 -12.407222 6.3707385 0
23.946857 -12.379042 6.366498 0
23.955528 -12.350671 6.3622227 0
23.96423 -12.322106 6.3578711 0
23.972778 -12.293672 6.3533792 0
23.981388 -12.264928 6.3487892 0
23.98999 -12.236091 6.3441334 0
23.998474 -12.207384 6.339385 0
24.007074 -12.178245 6.3345461 0
24.015535 -12.149228 6.3295789 0
24.024021 -12.12 6.3245206 0
23.987619 -12.091042 6.2669029 0
23.98951 -12.061946 6.2655759 0
23.991369 -12.032822 6.2642002 0
23.993147 -12.003778 6.2627201 0
23.994854 -11.974706 6.2611346 0
23.996525 -11.945492 6.2594824 0
23.999605 -11.916401 6.2568789 0
24.004761 -11.886921 6.2528238 0
24.009907 -11.857361 6.2487049 0
24.015003 -11.827944 6.244556 0
24.020058 -11.798438 6.2402749 0
24.025156 -11.768488 6.2358618 0
24.03022 -11.738443 6.2313299 0
24.035151 -11.708778 6.2267118 0
24.040089 -11.678892 6.2219958 0
24.045074 -11.648666 6.2172079 0
24.049997 -11.618575 6.2123594 0
24.054909 -11.588137 6.2073121 0
24.059793 -11.557821 6.2022676 0
24.064632 -11.527403 6.1970801 0
24.069382 -11.496997 6.1917095 0
24.074236 -11.466097 6.1863117 0
24.079018 -11.435323 6.1808228 0
24.083694 -11.404669 6.1751785 0
24.088482 -11.373273 6.1693888 0
24.093147 -11.342375 6.1635952 0
24.097813 -11.311214 6.1576748 0
24.102488 -11.279665 6.1515732 0
24.107044 -11.248358 6.1453528 0
24.111656 -11.216667 6.1390495 0
24.113554 -11.185349 6.1344738 0
24.112839 -11.15467 6.1312828 0
24.112061 -11.123906 6.1279526 0
24.11124 -11.093076 6.1245322 0
24.110394 -11.06205 6.1210508 0
24.109516 -11.031168 6.1175056 0
24.108557 -10.999951 6.1137795 0
24.107565 -10.968768 6.1099873 0
24.106485 -10.937493 6.1060047 0
24.105412 -10.906015 6.1020274 0
24.104311 -10.875043 6.0980201 0
24.103121 -10.843718 6.0938091 0
24.101902 -10.811828 6.0895052 0
24.100655 -10.78044 6.0851727 0
24.099361 -10.748802 6.0807295 0
24.097982 -10.717059 6.0761061 0
24.096245 -10.685441 6.0717077 0
24.093983 -10.653588 6.0673952 0
24.091621 -10.621762 6.0628948 0
24.0893 -10.589943 6.0584655 0
24.086933 -10.558119 6.0539532 0
24.084486 -10.526223 6.0492897 0
24.082006 -10.494064 6.0445638 0
24.079433 -10.462026 6.0396614 0
24.076794 -10.429922 6.0346327 0
24.074093 -10.397427 6.0294857 0
24.07136 -10.365169 6.0242777 0
24.068592 -10.332653 6.0190058 0
24.065746 -10.299984 6.013586 0
24.06284 -10.267344 6.0080514 0
24.059868 -10.234571 6.0023909 0
24.05687 -10.201752 5.9966822 0
24.053799 -10.168565 5.9908333 0
24.050694 -10.135731 5.9849219 0
24.047485 -10.102626 5.9788136 0
24.044188 -10.068991 5.9725351 0
24.047649 -10.032886 5.9618044 0
24.05208 -9.9958048 5.9501514 0
24.056465 -9.9584599 5.9382715 0
24.06078 -9.9212294 5.9263248 0
24.065153 -9.883358 5.9141421 0
24.069479 -9.8450975 5.9016662 0
24.073723 -9.8071003 5.8891797 0
24.078018 -9.7685671 5.8765006 0
24.082314 -9.7296104 5.863596 0
24.086554 -9.6904821 5.8504972 0
24.09066 -9.6512976 5.8371253 0
24.094868 -9.6117477 5.823741 0
24.099171 -9.5712376 5.81002 0
24.103279 -9.531003 5.796092 0
24.107399 -9.4904995 5.7820373 0
24.111452 -9.4498272 5.7677722 0
24.115471 -9.4088116 5.7532578 0
24.119537 -9.3673401 5.7385921 0
24.123652 -9.3252897 5.7236996 0
24.127674 -9.2827206 5.7083645 0
24.131544 -9.2405987 5.6929874 0
24.135529 -9.1978903 5.6775093 0
24.139534 -9.154376 5.6616368 0
24.143394 -9.1108913 5.6455145 0
24.147264 -9.0671816 5.6292901 0
24.151224 -9.0225401 5.6127348 0
24.155092 -8.977766 5.5959358 0
24.158815 -8.9332571 5.5790129 0
24.162563 -8.8877897 5.5616255 0
24.160496 -8.8456097 5.5483594 0
24.156704 -8.8043919 5.5362415 0
28.424326 -5.832448 2.3321571 0
28.387955 -5.7745328 2.3302984 0
28.351444 -5.7168522 2.3284378 0
28.314457 -5.6604352 2.3265676 0
28.276876 -5.6031146 2.3246665 0
28.239124 -5.5455141 2.3227563 0
28.206738 -5.4840298 2.3162956 0
28.174858 -5.4226022 2.3094378 0
28.142574 -5.3616695 2.302557 0
28.110165 -5.3001475 2.2956328 0
28.077126 -5.239624 2.2886868 0
28.043179 -5.1792459 2.2816439 0
28.009445 -5.1173701 2.274549 0
27.975441 -5.0556903 2.2674308 0
27.914858 -5.0160699 2.2810001 0
27.839016 -4.9911766 2.3069067 0
27.762884 -4.9660287 2.3331118 0
27.699684 -4.9295921 2.3484139 0
27.61121 -4.9162002 2.3839712 0
27.571838 -4.8603134 2.3800321 0
28.016188 -4.3779612 1.9781046 0
27.969955 -4.3224592 1.9767361 0
27.923275 -4.2680597 1.9755907 0
27.86393 -4.2263126 1.9847989 0
27.801924 -4.184495 1.9959283 0
27.739735 -4.1446729 2.0073214 0
27.676832 -4.1067004 2.0190959 0
27.634066 -4.0492659 2.013515 0
27.596535 -3.9859686 2.0028868 0
27.556173 -3.9242382 1.9944267 0
27.514088 -3.8656487 1.9876838 0
27.470612 -3.8086843 1.9810996 0
27.426952 -3.7499957 1.974329 0
27.383007 -3.6923413 1.9676666 0
27.338608 -3.635325 1.9610662 0
27.293909 -3.5770969 1.9543338 0
27.248207 -3.5204082 1.9477553 0
27.202528 -3.4638147 1.9411883 0
27.16021 -3.4027295 1.9310975 0
27.118013 -3.342226 1.9208236 0
27.075218 -3.2830052 1.9105783 0
27.031595 -3.222126 1.900094 0
26.987921 -3.160315 1.8895254 0
26.943987 -3.100111 1.8790579 0
26.887802 -3.0549951 1.8796978 0
26.826229 -3.0155754 1.8854456 0
26.764416 -2.9759893 1.8912163 0
26.701925 -2.9377718 1.8970447 0
26.639662 -2.8991261 1.902853 0
26.577448 -2.8610511 1.9086556 0
26.514708 -2.8241787 1.9145017 0
26.451536 -2.7881308 1.9203854 0
26.388069 -2.7512145 1.9262977 0
26.326336 -2.7118282 1.9301643 0
26.265846 -2.6731524 1.9330697 0
26.204636 -2.6358261 1.9365644 0
26.142673 -2.5978146 1.940105 0
26.08119 -2.5600934 1.9436178 0
26.018927 -2.5228634 1.9471645 0
25.948933 -2.4970546 1.9586148 0
25.873779 -2.4799571 1.9766426 0
25.798502 -2.4636097 1.9942007 0
25.733322 -2.4327221 2.0005307 0
25.670029 -2.3981276 2.0049911 0
25.594021 -2.3833165 2.0231481 0
25.514362 -2.3757191 2.0454884 0
23.196043 -5.9046659 4.646677 0
23.120783 -5.9395733 4.6896205 0
23.047117 -5.9737935 4.7315788 0
22.97501 -6.0073776 4.7725234 0
22.903671 -6.0407958 4.8127565 0
22.833698 -6.073596 4.8521862 0
22.765078 -6.1057553 4.8908663 0
22.697592 -6.137579 4.9286251 0
22.631121 -6.1690164 4.965683 0
22.566092 -6.1998744 5.0017881 0
22.50193 -6.2303658 5.0373468 0
22.43824 -6.2605944 5.0727019 0
22.375853 -6.2903433 5.1071348 0
22.314589 -6.3196306 5.1408386 0
22.276175 -6.3065643 5.1445274 0
22.240856 -6.2875204 5.1438332 0
22.205559 -6.2684107 5.1432409 0
22.170053 -6.2492971 5.1425061 0
22.134483 -6.2302828 5.1416006 0
22.099115 -6.2113895 5.140686 0
22.063513 -6.1923971 5.1397328 0
22.027977 -6.1737285 5.1384182 0
21.992283 -6.1549454 5.1371384 0
21.956442 -6.1360621 5.1358833 0
21.92071 -6.1174874 5.1343145 0
21.884869 -6.0988898 5.1327004 0
21.849392 -6.0792079 5.130311 0
21.815403 -6.0562115 5.125381 0
21.781246 -6.0331578 5.120368 0
21.746912 -6.010057 5.1152496 0
21.712627 -5.987143 5.1099772 0
21.678085 -5.9639711 5.1047525 0
21.64349 -5.9410138 5.0992575 0
21.608679 -5.9180012 5.0936298 0
21.573847 -5.8951035 5.0878649 0
21.539011 -5.8723097 5.0819836 0
21.503792 -5.8491945 5.0761156 0
21.468388 -5.8263154 5.0701494 0
21.432896 -5.8035164 5.0642014 0
21.3974 -5.7809625 5.0579872 0
21.361702 -5.7583485 5.0516644 0
21.325722 -5.7355962 5.0452471 0
21.289656 -5.7129278 5.0386677 0
21.264709 -5.6540632 5.0088053 0
21.245514 -5.5744257 4.9653211 0
21.225878 -5.4934435 4.9208794 0
21.205797 -5.4103026 4.8754077 0
21.182821 -5.3345222 4.8343039 0
21.152927 -5.2804952 4.8070335 0
21.122536 -5.2254829 4.779357 0
21.091831 -5.1700516 4.7513142 0
21.070316 -5.0761509 4.6989331 0
21.049643 -4.9748335 4.6413541 0
21.028524 -4.8714399 4.58255 0
21.006723 -4.7646236 4.5218334 0
20.975267 -4.6947231 4.4841442 0
20.94047 -4.6371765 4.4542847 0
20.901773 -4.5935583 4.4331074 0
20.868687 -4.5209103 4.393755 0
20.836761 -4.4388652 4.348444 0
20.804308 -4.356143 4.3024392 0
20.767282 -4.2923141 4.2681742 0
20.725046 -4.2520499 4.2485027 0
20.682289 -4.2112503 4.2286115 0
21.340563 -0.1274128 1.6804943 0
21.273123 -0.078846931 1.6577973 0
21.205238 -0.03057766 1.6347589 0
21.136934 0.018463135 1.6117249 0
21.06382 0.039308548 1.6060038 0
20.989641 0.055664062 1.602653 0
20.915472 0.070977211 1.599318 0
20.841742 0.085830688 1.5960102 0
20.767269 0.10105133 1.5926666 0
20.692677 0.11539268 1.5893307 0
20.618563 0.12876511 1.586031 0
20.543783 0.14222622 1.5827012 0
20.468805 0.15596485 1.5793591 0
20.39407 0.1682272 1.5760508 0
20.31933 0.18100643 1.5727348 0
20.244345 0.19262791 1.5694261 0
20.169041 0.20290279 1.5661268 0
20.093714 0.21376991 1.5628166 0
20.018431 0.2232914 1.5595298 0
19.942844 0.23383522 1.5562148 0
19.86459 0.18887043 1.5866423 0
19.786997 0.14065838 1.618288 0
19.709822 0.09268856 1.6497645 0
19.63336 0.04453373 1.6810055 0
19.557083 -0.0088176727 1.7153039 0
19.482048 -0.068651199 1.7529354 0
19.40819 -0.066987991 1.7520061 0
19.333929 -0.022468567 1.725265 0
19.26 0.022004128 1.6987906 0
19.185423 0.065742493 1.6709814 0
19.109518 0.1104393 1.6428571 0
19.033829 0.15537739 1.6151695 0
18.957277 0.22088146 1.5736933 0
18.881336 0.217453 1.5744343 0
18.805824 0.21345234 1.5749722 0
18.730034 0.20959759 1.5755653 0
18.654467 0.20597172 1.5762291 0
18.583754 0.11272717 1.6310678 0
18.515446 -0.0039300919 1.7000527 0
18.448151 -0.11150742 1.7635751 0
18.382008 -0.21797562 1.8261919 0
18.317034 -0.32248974 1.8876834 0
18.253124 -0.42685795 1.9485507 0
18.190565 -0.53122807 2.0086746 0
18.12882 -0.63331795 2.0677891 0
18.067982 -0.73432922 2.1261392 0
18.01362 -0.88199711 2.2129421 0
17.949196 -0.92651653 2.23563 0
17.884232 -0.96475887 2.2545409 0
17.81793 -0.99216938 2.2658668 0
17.752378 -1.0191593 2.2770514 0
17.686876 -1.0459404 2.2882776 0
17.622272 -1.0806675 2.3034177 0
17.558258 -1.1150093 2.3184214 0
17.494711 -1.1492567 2.3333077 0
17.431482 -1.1837397 2.3481035 0
17.368656 -1.2188015 2.3627682 0
17.306015 -1.2545156 2.3773556 0
17.243607 -1.2896767 2.3919082 0
17.181358 -1.3253899 2.406395 0
17.119844 -1.3612251 2.4206872 0
17.058762 -1.3964329 2.4348955 0
16.997641 -1.4330559 2.4490499 0
16.936991 -1.4700127 2.4630675 0
16.876482 -1.5065403 2.4770679 0
16.81576 -1.5389967 2.4885325 0
16.75407 -1.5678024 2.4973516 0
16.692644 -1.5975361 2.5060997 0
16.631777 -1.6270761 2.5147643 0
16.570755 -1.6565924 2.5234566 0
16.510176 -1.6868382 2.5320568 0
16.449875 -1.718009 2.5405827 0
16.389627 -1.7489195 2.5491104 0
16.329828 -1.7792225 2.5575848 0
16.270332 -1.8104115 2.5659852 0
16.211035 -1.8424292 2.5743289 0
16.151848 -1.8744364 2.5826554 0
16.092417 -1.9039621 2.5897398 0
16.029921 -1.9233074 2.5896683 0
15.967475 -1.9439583 2.5895848 0
15.904844 -1.964283 2.5893383 0
15.84235 -1.9838762 2.5889139 0
15.780166 -2.0039549 2.5884714 0
15.717941 -2.0251608 2.5879874 0
15.6556 -2.0466318 2.5874949 0
15.593361 -2.0684195 2.5869889 0
15.531759 -2.089922 2.5864911 0
15.469977 -2.1119938 2.5859728 0
15.408306 -2.1346998 2.5854321 0
15.346882 -2.157517 2.5848846 0
15.285235 -2.1811662 2.5843081 0
15.22179 -2.1991835 2.5799375 0
15.142764 -2.1798892 2.5504761 0
15.064766 -2.1643167 2.5233197 0
14.98883 -2.1561079 2.5002241 0
14.912476 -2.1483259 2.4769559 0
14.836315 -2.1401739 2.4537845 0
14.759697 -2.1326694 2.4304051 0
14.682394 -2.1263409 2.4066935 0
14.604858 -2.1198196 2.3829274 0
14.527018 -2.1127977 2.3591151 0
14.448795 -2.1071339 2.3350482 0
14.370475 -2.1016521 2.3109322 0
14.291448 -2.0962133 2.2865882 0
14.195717 -2.0596752 2.2397437 0
14.081486 -1.9880104 2.1682186 0
14.006056 -1.9932137 2.1503453 0
13.944151 -2.026001 2.1508217 0
13.882575 -2.0595045 2.1509633 0
13.820889 -2.0927877 2.1512098 0
13.759711 -2.1261692 2.1513157 0
13.691769 -2.1482983 2.1425328 0
13.618284 -2.1620388 2.1274714 0
13.545218 -2.1752625 2.112483 0
13.482306 -2.2064705 2.1098537 0
13.425019 -2.2476616 2.1140599 0
13.367949 -2.2896814 2.1182337 0
13.301129 -2.3154254 2.1104293 0
13.232744 -2.3378239 2.1002312 0
13.164106 -2.3608532 2.0898724 0
13.094811 -2.3845382 2.0793185 0
13.025887 -2.4079657 2.0688496 0
12.962248 -2.4391928 2.0641193 0
12.904472 -2.4810715 2.0659499 0
12.847208 -2.523046 2.0676723 0
12.790082 -2.5645413 2.0694637 0
12.732984 -2.6066236 2.071136 0
12.676614 -2.6487689 2.07267 0
12.619808 -2.6914573 2.0741735 0
12.563215 -2.7346535 2.0755429 0
12.508955 -2.7798562 2.0787249 0
12.454565 -2.8256564 2.0819149 0
12.400703 -2.8715906 2.0849838 0
12.347265 -2.9172292 2.0880175 0
12.293701 -2.9635653 2.09097 0
12.240261 -3.0105143 2.0938053 0
12.187387 -3.0570278 2.0966029 0
12.134222 -3.1038499 2.0988135 0
12.080933 -3.1505265 2.1009221 0
12.02829 -3.1968269 2.1029754 0
11.975631 -3.2440495 2.1048884 0
11.923185 -3.2915454 2.1067204 0
11.871178 -3.338738 2.1085219 0
11.819403 -3.3862877 2.1105194 0
11.773283 -3.4404697 2.1173205 0
11.727452 -3.4952612 2.124063 0
11.681601 -3.5501089 2.1308064 0
11.641657 -3.6100979 2.1422839 0
11.602571 -3.6709738 2.1538677 0
11.563374 -3.73209 2.1654835 0
11.524694 -3.7927952 2.176949 0
11.486584 -3.8542986 2.1882648 0
11.264343 -3.7221179 2.0347552 0
11.184435 -3.741663 2.0096993 0
11.138786 -3.7969747 2.01472 0
11.096031 -3.8552761 2.0220981 0
11.053688 -3.9136863 2.029283 0
11.012036 -3.972538 2.0360999 0
10.970143 -4.0310454 2.0430784 0
10.928423 -4.0895472 2.0499854 0
10.887107 -4.1486759 2.0566115 0
10.846295 -4.2070308 2.0631642 0
10.805513 -4.2661848 2.0695581 0
10.765018 -4.3252831 2.0758448 0
10.724758 -4.3836679 2.0821605 0
10.684823 -4.4429755 2.0881734 0
10.645035 -4.5024462 2.0940943 0
10.605482 -4.5618653 2.0999265 0
10.566499 -4.6209092 2.1055865 0
10.527313 -4.6801229 2.1113 0
10.488475 -4.7398796 2.1167717 0
10.450356 -4.7992039 2.1220198 0
10.412279 -4.8582101 2.1273041 0
10.374184 -4.9178739 2.1324797 0
10.336622 -4.9782014 2.1373119 0
10.298959 -5.0387731 2.1422257 0
10.022907 -4.9115758 1.9602156 0
9.9639788 -4.9562025 1.9484429 0
9.9043293 -5.0019517 1.9364958 0
9.8455296 -5.0479569 1.9246769 0
9.7871475 -5.0938458 1.912931 0
9.728487 -5.1408234 1.9010859 0
9.6734018 -5.1910686 1.8915467 0
9.6294832 -5.2493429 1.8906245 0
9.5863533 -5.3070111 1.8896794 0
9.5438023 -5.3654532 1.8886147 0
9.5007668 -5.4247098 1.8875237 0
9.4585495 -5.4833508 1.8864107 0
9.4165621 -5.5426211 1.885222 0
9.3743858 -5.602581 1.8839912 0
9.3327856 -5.6616797 1.8827806 0
9.2919397 -5.7211242 1.8814702 0
9.2511587 -5.7818131 1.8800473 0
9.210248 -5.8428235 1.8786097 0
9.1701307 -5.9028182 1.8771839 0
9.1300735 -5.9629531 1.8757405 0
9.090085 -6.0248518 1.8741398 0
9.0511751 -6.0861015 1.8724947 0
9.0118952 -6.1463189 1.8709722 0
8.9726639 -6.2079134 1.8693271 0
8.9343061 -6.2713819 1.8674388 0
8.8962498 -6.3337193 1.8658581 0
8.8830175 -6.4085255 1.8815346 0
8.8708258 -6.484138 1.8974509 0
8.8595009 -6.5605683 1.9135995 0
8.8485155 -6.6365337 1.929666 0
8.8386621 -6.7133622 1.9459891 0
8.8295107 -6.789772 1.9622636 0
8.8196878 -6.864315 1.978086 0
8.8116522 -6.9406166 1.9944029 0
8.8002243 -7.0154181 2.0081363 0
8.7702665 -7.0799708 2.0089717 0
8.7405682 -7.1443992 2.0096865 0
8.7108002 -7.2095714 2.0102615 0
8.6814651 -7.274929 2.0105481 0
8.6523609 -7.3395796 2.0108771 0
8.6232672 -7.405025 2.0110083 0
8.5945272 -7.4707403 2.0108724 0
8.6149845 -7.5565028 2.0433431 0
8.6094294 -7.6317739 2.0584941 0
8.604394 -7.706356 2.0732913 0
8.5640621 -7.7659616 2.0641294 0
8.5178919 -7.8244934 2.0512223 0
8.4725676 -7.8823991 2.0383773 0
8.4268351 -7.9409895 2.0253477 0
8.3809557 -8.0004902 2.011991 0
8.3357677 -8.059103 1.9988294 0
8.2902441 -8.1186905 1.9851584 0
8.241888 -8.177844 1.9694147 0
8.1939335 -8.2367191 1.9537172 0
8.1460724 -8.296072 1.9378195 0
8.0973806 -8.356884 1.9214802 0
8.0493279 -8.4172354 1.9052229 0
8.0020227 -8.4770203 1.8890753 0
7.9541979 -8.5380945 1.8725033 0
7.9068308 -8.5994663 1.8557467 0
7.8969498 -8.6728592 1.8632221 0
7.8922729 -8.7477245 1.873776 0
7.8884821 -8.8222246 1.8843017 0
7.8847952 -8.8971682 1.8948936 0
7.882144 -8.9715767 1.9054394 0
7.8776007 -9.0447407 1.9147968 0
7.860302 -9.1161327 1.9158745 0
7.8434896 -9.1859493 1.9168983 0
7.8272972 -9.2554197 1.9177833 0
7.8113279 -9.3267746 1.9185262 0
7.7950773 -9.3974218 1.9193702 0
7.779727 -9.4680214 1.9199905 0
7.7646122 -9.5387325 1.9205437 0
7.7498398 -9.6092129 1.9210243 0
7.7351933 -9.6802444 1.9214454 0
7.7209072 -9.7511539 1.921782 0
7.707552 -9.8221407 1.9224401 0
7.6946716 -9.8928938 1.9230223 0
7.6823902 -9.964325 1.9234262 0
7.669982 -10.036268 1.9238434 0
7.6579008 -10.106798 1.9242315 0
7.6432552 -10.177392 1.9225831 0
7.6277103 -10.248433 1.9200439 0
7.6122875 -10.318523 1.9175668 0
7.5970688 -10.390279 1.9148521 0
7.5823936 -10.461006 1.9120731 0
7.5698652 -10.53229 1.9103575 0
7.5668173 -10.605644 1.9145265 0
7.5639 -10.677197 1.9185767 0
7.5616074 -10.749553 1.9224491 0
7.5596638 -10.822454 1.9262295 0
7.5578918 -10.894835 1.9299297 0
7.5565472 -10.966936 1.933475 0
7.5554638 -11.039803 1.9369659 0
7.5543633 -11.112152 1.9404407 0
7.5535727 -11.183995 1.9437885 0
7.5531111 -11.256413 1.9470506 0
7.5554333 -11.32934 1.9514651 0
7.1338043 -11.375281 1.6938767 0
7.1111193 -11.447722 1.6825991 0
7.1096029 -11.522937 1.6842318 0
7.1085377 -11.598124 1.6858239 0
7.1083288 -11.672432 1.687315 0
7.1081095 -11.747134 1.6888165 0
7.1081619 -11.821576 1.6902857 0
7.1088629 -11.896445 1.6917033 0
7.1086025 -11.970609 1.6920614 0
7.1045713 -12.045391 1.6900034 0
7.1006527 -12.119999 1.6879306 0
7.0976572 -12.194649 1.6856856 0
7.0946703 -12.269566 1.6834307 0
7.0917587 -12.343867 1.6811829 0
7.0896158 -12.418876 1.6787686 0
7.0878849 -12.49349 1.6762919 0
7.0864019 -12.568377 1.6737585 0
7.0852051 -12.642881 1.6711888 0
7.0845366 -12.718299 1.6684861 0
7.0838966 -12.793785 1.6657748 0
7.0834341 -12.867803 1.6630883 0
7.0837774 -12.942513 1.6602263 0
7.0844307 -13.018161 1.657269 0
7.0851049 -13.093466 1.6543241 0
7.0848961 -13.168296 1.6502261 0
7.0838671 -13.243727 1.6452932 0
7.0828772 -13.319716 1.6403146 0
7.0843334 -13.394742 1.6363397 0
7.1084766 -13.467585 1.6465001 0
7.1334372 -13.540618 1.6566687 0
7.1584082 -13.612851 1.6667151 0
7.1838007 -13.683966 1.6765852 0
7.2100945 -13.756544 1.6866465 0
7.2355833 -13.82823 1.6965985 0
7.2622614 -13.899418 1.7064428 0
7.2901163 -13.971334 1.7163625 0
7.3120871 -14.042305 1.7231174 0
7.3239975 -14.11601 1.7234068 0
7.3415518 -14.188129 1.726265 0
7.3592939 -14.259553 1.729115 0
7.3769684 -14.332541 1.7320023 0
7.3950682 -14.404808 1.7348938 0
7.4139576 -14.476249 1.7378054 0
7.4332552 -14.54786 1.7407427 0
7.4531946 -14.619424 1.7437143 0
7.4732208 -14.691141 1.7466474 0
7.4932384 -14.762181 1.7492299 0
7.5140543 -14.833364 1.7518311 0
7.5013256 -14.912538 1.7331581 0
7.4651403 -14.997666 1.699451 0
7.4293499 -15.084139 1.6651764 0
7.39501 -15.169293 1.6313939 0
7.360055 -15.25561 1.5971556 0
7.3244143 -15.344675 1.561811 0
7.3424196 -15.417804 1.5607357 0
7.3679838 -15.489352 1.5640125 0
7.3939676 -15.561113 1.5673046 0
7.4202366 -15.632712 1.5705967 0
7.4283371 -15.709285 1.5616221 0
7.4244595 -15.789566 1.5445495 0
7.4205494 -15.870989 1.5272284 0
7.4164543 -15.952478 1.509943 0
7.413065 -16.033405 1.4925914 0
7.4101248 -16.115389 1.4748816 0
7.4077187 -16.197613 1.4569707 0
7.4057255 -16.279404 1.4390454 0
7.4038954 -16.362236 1.4208407 0
7.4022646 -16.445263 1.4025388 0
7.4007778 -16.528238 1.3842077 0
7.4001999 -16.610777 1.3657293 0
7.3993587 -16.695389 1.3468561 0
7.3988409 -16.77953 1.3279991 0
7.3992605 -16.862823 1.3090796 0
